# .PCD v0.7 - Point Cloud Data file format
VERSION 0.7
FIELDS x y z rgb
SIZE 4 4 4 4
TYPE F F F F
COUNT 1 1 1 1
WIDTH 1232
HEIGHT 1
VIEWPOINT 0 0 0 1 0 0 0
POINTS 1232
DATA ascii
0.086188182 -0.053968739 0.98100007 nan
0.08802247 -0.053968739 0.98100007 nan
0.089856766 -0.053968739 0.98100007 nan
0.091691062 -0.053968739 0.98100007 nan
0.095068023 -0.053803701 0.97800004 nan
-0.044675183 -0.052881263 0.99500006 -3.3908903e+38
-0.042814713 -0.052881263 0.99500006 nan
-0.040954243 -0.052881263 0.99500006 nan
-0.039093774 -0.052881263 0.99500006 nan
-0.037233304 -0.052881263 0.99500006 nan
-0.035372835 -0.052881263 0.99500006 nan
-0.033613406 -0.053040706 0.99800003 nan
-0.031747326 -0.053040706 0.99800003 nan
-0.029971071 -0.053200144 1.001 nan
-0.028183596 -0.053359583 1.0040001 nan
-0.026306298 -0.053359583 1.0040001 nan
-0.024501992 -0.053519029 1.0070001 nan
-0.022686472 -0.053678468 1.01 nan
-0.020797955 -0.053678468 1.01 nan
-0.018965602 -0.053837907 1.013 nan
-0.017071476 -0.053837907 1.013 nan
-0.01517735 -0.053837907 1.013 nan
-0.013283224 -0.053837907 1.013 nan
-0.011422825 -0.053997349 1.016 nan
-0.009523089 -0.053997349 1.016 nan
-0.0076233526 -0.053997349 1.016 nan
-0.0057236161 -0.053997349 1.016 nan
-0.0038238801 -0.053997349 1.016 nan
-0.0019355071 -0.05431623 1.0220001 nan
-2.4551762e-05 -0.05431623 1.0220001 nan
0.0018864034 -0.05431623 1.0220001 nan
0.0038085054 -0.054475673 1.0250001 nan
0.0057250699 -0.054475673 1.0250001 nan
0.0076416344 -0.054475673 1.0250001 nan
0.0095581999 -0.054475673 1.0250001 nan
0.011474764 -0.054475673 1.0250001 nan
0.013391329 -0.054475673 1.0250001 nan
0.015307893 -0.054475673 1.0250001 nan
0.01727487 -0.054635115 1.028 nan
0.019197045 -0.054635115 1.028 nan
0.021057587 -0.054475673 1.0250001 nan
0.022974152 -0.054475673 1.0250001 nan
0.024890717 -0.054475673 1.0250001 nan
0.02680728 -0.054475673 1.0250001 nan
0.028723845 -0.054475673 1.0250001 nan
0.030640408 -0.054475673 1.0250001 nan
0.032556973 -0.054475673 1.0250001 nan
0.034473538 -0.054475673 1.0250001 nan
0.036390103 -0.054475673 1.0250001 nan
0.038306668 -0.054475673 1.0250001 nan
0.040105507 -0.05431623 1.0220001 nan
0.041893125 -0.054156791 1.0190001 nan
0.043798473 -0.054156791 1.0190001 nan
0.045569263 -0.053997349 1.016 nan
0.047469001 -0.053997349 1.016 nan
0.049368735 -0.053997349 1.016 nan
0.051268473 -0.053997349 1.016 nan
0.053011212 -0.053837907 1.013 nan
0.05490534 -0.053837907 1.013 nan
0.056631256 -0.053678468 1.01 nan
0.058519773 -0.053678468 1.01 nan
0.06040829 -0.053678468 1.01 nan
0.062111769 -0.053519029 1.0070001 nan
0.063994676 -0.053519029 1.0070001 nan
0.065681323 -0.053359583 1.0040001 nan
0.067558624 -0.053359583 1.0040001 nan
0.069435924 -0.053359583 1.0040001 nan
0.071100138 -0.053200144 1.001 nan
0.072753131 -0.053040706 0.99800003 nan
0.074394897 -0.052881263 0.99500006 nan
0.076255366 -0.052881263 0.99500006 nan
0.077880308 -0.052721821 0.99200004 nan
0.079333283 -0.052456088 0.98700005 nan
0.081178799 -0.052456088 0.98700005 nan
0.082771957 -0.052296646 0.98400003 nan
0.084353887 -0.052137204 0.98100007 nan
0.086188182 -0.052137204 0.98100007 nan
0.087753296 -0.051977765 0.97800004 nan
0.089581974 -0.051977765 0.97800004 nan
0.091410659 -0.051977765 0.97800004 nan
0.093239345 -0.051977765 0.97800004 nan
-0.044540487 -0.050869748 0.99200004 nan
-0.042685628 -0.050869748 0.99200004 nan
-0.040830765 -0.050869748 0.99200004 nan
-0.039093774 -0.051023588 0.99500006 nan
-0.037233304 -0.051023588 0.99500006 nan
-0.035372835 -0.051023588 0.99500006 nan
-0.033613406 -0.051177431 0.99800003 nan
-0.031842761 -0.051331267 1.001 nan
-0.029971071 -0.051331267 1.001 nan
-0.028183596 -0.051485106 1.0040001 nan
-0.026384901 -0.05163895 1.0070001 nan
-0.024501992 -0.05163895 1.0070001 nan
-0.022686472 -0.051792789 1.01 nan
-0.020797955 -0.051792789 1.01 nan
-0.018965602 -0.051946625 1.013 nan
-0.017071476 -0.051946625 1.013 nan
-0.01517735 -0.051946625 1.013 nan
-0.013283224 -0.051946625 1.013 nan
-0.011422825 -0.052100468 1.016 nan
-0.009523089 -0.052100468 1.016 nan
-0.0076233526 -0.052100468 1.016 nan
-0.0057236161 -0.052100468 1.016 nan
-0.0038238801 -0.052100468 1.016 nan
-0.0019355071 -0.052408148 1.0220001 nan
-2.4551762e-05 -0.052408148 1.0220001 nan
0.0018919408 -0.052561987 1.0250001 nan
0.0038085054 -0.052561987 1.0250001 nan
0.0057250699 -0.052561987 1.0250001 nan
0.0076416344 -0.052561987 1.0250001 nan
0.0095581999 -0.052561987 1.0250001 nan
0.011474764 -0.052561987 1.0250001 nan
0.013391329 -0.052561987 1.0250001 nan
0.015307893 -0.052561987 1.0250001 nan
0.017224457 -0.052561987 1.0250001 nan
0.019141022 -0.052561987 1.0250001 nan
0.021057587 -0.052561987 1.0250001 nan
0.022974152 -0.052561987 1.0250001 nan
0.024890717 -0.052561987 1.0250001 nan
0.02680728 -0.052561987 1.0250001 nan
0.028723845 -0.052561987 1.0250001 nan
0.030640408 -0.052561987 1.0250001 nan
0.032556973 -0.052561987 1.0250001 nan
0.034473538 -0.052561987 1.0250001 nan
0.036390103 -0.052561987 1.0250001 nan
0.038306668 -0.052561987 1.0250001 nan
0.040105507 -0.052408148 1.0220001 nan
0.042016461 -0.052408148 1.0220001 nan
0.043798473 -0.052254308 1.0190001 nan
0.045703817 -0.052254308 1.0190001 nan
0.047469001 -0.052100468 1.016 nan
0.049368735 -0.052100468 1.016 nan
0.051268473 -0.052100468 1.016 nan
0.053011212 -0.051946625 1.013 nan
0.05490534 -0.051946625 1.013 nan
0.056799468 -0.051946625 1.013 nan
0.058693592 -0.051946625 1.013 nan
0.06040829 -0.051792789 1.01 nan
0.062296808 -0.051792789 1.01 nan
0.063994676 -0.05163895 1.0070001 nan
0.065877587 -0.05163895 1.0070001 nan
0.067558624 -0.051485106 1.0040001 nan
0.069435924 -0.051485106 1.0040001 nan
0.071100138 -0.051331267 1.001 nan
0.072971821 -0.051331267 1.001 nan
0.074619211 -0.051177431 0.99800003 nan
0.076255366 -0.051023588 0.99500006 nan
0.077880308 -0.050869748 0.99200004 nan
0.079735175 -0.050869748 0.99200004 nan
0.081178799 -0.050613347 0.98700005 nan
0.082771957 -0.050459508 0.98400003 nan
0.084353887 -0.050305668 0.98100007 nan
0.086188182 -0.050305668 0.98100007 nan
0.087753296 -0.050151829 0.97800004 nan
0.089581974 -0.050151829 0.97800004 nan
0.091410659 -0.050151829 0.97800004 nan
0.093239345 -0.050151829 0.97800004 nan
-0.04810429 -0.048869435 0.98900002 -2.3395451e+38
-0.046395347 -0.049017675 0.99200004 nan
-0.044540487 -0.049017675 0.99200004 nan
-0.042685628 -0.049017675 0.99200004 nan
-0.040830765 -0.049017675 0.99200004 nan
-0.038975906 -0.049017675 0.99200004 nan
-0.037233304 -0.049165912 0.99500006 nan
-0.035479486 -0.049314152 0.99800003 nan
-0.033613406 -0.049314152 0.99800003 nan
-0.031842761 -0.049462389 1.001 nan
-0.029971071 -0.049462389 1.001 nan
-0.028183596 -0.04961063 1.0040001 nan
-0.026384901 -0.04975887 1.0070001 nan
-0.024501992 -0.04975887 1.0070001 nan
-0.022686472 -0.049907107 1.01 nan
-0.020797955 -0.049907107 1.01 nan
-0.018965602 -0.050055344 1.013 nan
-0.017071476 -0.050055344 1.013 nan
-0.01517735 -0.050055344 1.013 nan
-0.013283224 -0.050055344 1.013 nan
-0.011422825 -0.050203588 1.016 nan
-0.009523089 -0.050203588 1.016 nan
-0.0076233526 -0.050203588 1.016 nan
-0.0057236161 -0.050203588 1.016 nan
-0.0038351712 -0.050351825 1.0190001 nan
-0.0019355071 -0.050500061 1.0220001 nan
-2.4551762e-05 -0.050500061 1.0220001 nan
0.0018919408 -0.050648302 1.0250001 nan
0.0038085054 -0.050648302 1.0250001 nan
0.0057250699 -0.050648302 1.0250001 nan
0.0076416344 -0.050648302 1.0250001 nan
0.0095581999 -0.050648302 1.0250001 nan
0.011474764 -0.050648302 1.0250001 nan
0.013391329 -0.050648302 1.0250001 nan
0.015307893 -0.050648302 1.0250001 nan
0.017224457 -0.050648302 1.0250001 nan
0.019141022 -0.050648302 1.0250001 nan
0.021057587 -0.050648302 1.0250001 nan
0.022974152 -0.050648302 1.0250001 nan
0.024890717 -0.050648302 1.0250001 nan
0.02680728 -0.050648302 1.0250001 nan
0.028723845 -0.050648302 1.0250001 nan
0.030640408 -0.050648302 1.0250001 nan
0.032556973 -0.050648302 1.0250001 nan
0.034473538 -0.050648302 1.0250001 nan
0.036390103 -0.050648302 1.0250001 nan
0.038306668 -0.050648302 1.0250001 nan
0.040105507 -0.050500061 1.0220001 nan
0.042016461 -0.050500061 1.0220001 nan
0.043798473 -0.050351825 1.0190001 nan
0.045703817 -0.050351825 1.0190001 nan
0.047469001 -0.050203588 1.016 nan
0.049368735 -0.050203588 1.016 nan
0.051268473 -0.050203588 1.016 nan
0.053011212 -0.050055344 1.013 nan
0.05490534 -0.050055344 1.013 nan
0.056799468 -0.050055344 1.013 nan
0.058693592 -0.050055344 1.013 nan
0.060587719 -0.050055344 1.013 nan
0.062296808 -0.049907107 1.01 nan
0.064185329 -0.049907107 1.01 nan
0.066073842 -0.049907107 1.01 nan
0.06776049 -0.04975887 1.0070001 nan
0.069435924 -0.04961063 1.0040001 nan
0.071100138 -0.049462389 1.001 nan
0.072971821 -0.049462389 1.001 nan
0.074619211 -0.049314152 0.99800003 nan
0.076255366 -0.049165912 0.99500006 nan
0.078115836 -0.049165912 0.99500006 nan
0.079735175 -0.049017675 0.99200004 nan
0.081178799 -0.04877061 0.98700005 nan
0.082771957 -0.04862237 0.98400003 nan
0.084611855 -0.04862237 0.98400003 nan
0.086188182 -0.048474129 0.98100007 nan
0.087753296 -0.048325893 0.97800004 nan
0.089581974 -0.048325893 0.97800004 nan
0.091410659 -0.048325893 0.97800004 nan
0.092953332 -0.048177656 0.97500002 nan
0.094581999 -0.048078828 0.97300005 nan
0.0961041 -0.047930591 0.97000003 nan
-0.04810429 -0.047022965 0.98900002 -2.6587186e+38
-0.046255037 -0.047022965 0.98900002 nan
-0.044405788 -0.047022965 0.98900002 nan
-0.042556535 -0.047022965 0.98900002 nan
-0.040830765 -0.047165599 0.99200004 nan
-0.038975906 -0.047165599 0.99200004 nan
-0.037233304 -0.047308236 0.99500006 nan
-0.035479486 -0.047450878 0.99800003 nan
-0.033613406 -0.047450878 0.99800003 nan
-0.031842761 -0.047593515 1.001 nan
-0.030060895 -0.047736149 1.0040001 nan
-0.028183596 -0.047736149 1.0040001 nan
-0.026384901 -0.047878791 1.0070001 nan
-0.024574989 -0.048021428 1.01 nan
-0.022686472 -0.048021428 1.01 nan
-0.020797955 -0.048021428 1.01 nan
-0.018965602 -0.048164062 1.013 nan
-0.017071476 -0.048164062 1.013 nan
-0.01517735 -0.048164062 1.013 nan
-0.013283224 -0.048164062 1.013 nan
-0.011422825 -0.048306704 1.016 nan
-0.009523089 -0.048306704 1.016 nan
-0.0076458626 -0.048449341 1.0190001 nan
-0.0057405168 -0.048449341 1.0190001 nan
-0.0038351712 -0.048449341 1.0190001 nan
-0.0019355071 -0.048591979 1.0220001 nan
-2.4551762e-05 -0.048591979 1.0220001 nan
0.0018919408 -0.048734616 1.0250001 nan
0.0038085054 -0.048734616 1.0250001 nan
0.0057250699 -0.048734616 1.0250001 nan
0.0076416344 -0.048734616 1.0250001 nan
0.0095581999 -0.048734616 1.0250001 nan
0.011474764 -0.048734616 1.0250001 nan
0.013391329 -0.048734616 1.0250001 nan
0.015307893 -0.048734616 1.0250001 nan
0.017224457 -0.048734616 1.0250001 nan
0.019197045 -0.048877254 1.028 nan
0.021057587 -0.048734616 1.0250001 nan
0.022974152 -0.048734616 1.0250001 nan
0.024890717 -0.048734616 1.0250001 nan
0.02680728 -0.048734616 1.0250001 nan
0.028723845 -0.048734616 1.0250001 nan
0.030640408 -0.048734616 1.0250001 nan
0.032556973 -0.048734616 1.0250001 nan
0.034473538 -0.048734616 1.0250001 nan
0.036390103 -0.048734616 1.0250001 nan
0.038306668 -0.048734616 1.0250001 nan
0.040105507 -0.048591979 1.0220001 nan
0.041893125 -0.048449341 1.0190001 nan
0.043798473 -0.048449341 1.0190001 nan
0.045703817 -0.048449341 1.0190001 nan
0.047469001 -0.048306704 1.016 nan
0.049368735 -0.048306704 1.016 nan
0.051268473 -0.048306704 1.016 nan
0.053011212 -0.048164062 1.013 nan
0.05490534 -0.048164062 1.013 nan
0.056799468 -0.048164062 1.013 nan
0.058693592 -0.048164062 1.013 nan
0.060587719 -0.048164062 1.013 nan
0.062296808 -0.048021428 1.01 nan
0.064185329 -0.048021428 1.01 nan
0.065877587 -0.047878791 1.0070001 nan
0.06776049 -0.047878791 1.0070001 nan
0.069435924 -0.047736149 1.0040001 nan
0.071313225 -0.047736149 1.0040001 nan
0.072971821 -0.047593515 1.001 nan
0.074843511 -0.047593515 1.001 nan
0.076485291 -0.047450878 0.99800003 nan
0.078115836 -0.047308236 0.99500006 nan
0.079735175 -0.047165599 0.99200004 nan
0.081178799 -0.046927869 0.98700005 nan
0.083024308 -0.046927869 0.98700005 nan
0.084611855 -0.046785232 0.98400003 nan
0.086188182 -0.046642594 0.98100007 nan
0.087753296 -0.046499956 0.97800004 nan
0.089581974 -0.046499956 0.97800004 nan
0.091130257 -0.046357319 0.97500002 nan
0.092762664 -0.046262227 0.97300005 nan
0.094581999 -0.046262227 0.97300005 nan
0.0961041 -0.046119589 0.97000003 nan
-0.051802792 -0.045176491 0.98900002 -2.3000332e+38
-0.049852524 -0.045085132 0.98700005 -2.5528457e+38
-0.048007011 -0.045085132 0.98700005 -3.1783148e+38
-0.046255037 -0.045176491 0.98900002 nan
-0.044405788 -0.045176491 0.98900002 nan
-0.042556535 -0.045176491 0.98900002 nan
-0.040707283 -0.045176491 0.98900002 nan
-0.038975906 -0.045313526 0.99200004 nan
-0.037233304 -0.045450561 0.99500006 nan
-0.035479486 -0.045587599 0.99800003 nan
-0.033714451 -0.045724638 1.001 nan
-0.031938192 -0.045861673 1.0040001 nan
-0.030060895 -0.045861673 1.0040001 nan
-0.028267808 -0.045998711 1.0070001 nan
-0.026384901 -0.045998711 1.0070001 nan
-0.024574989 -0.046135746 1.01 nan
-0.022686472 -0.046135746 1.01 nan
-0.020859729 -0.046272784 1.013 nan
-0.018965602 -0.046272784 1.013 nan
-0.017071476 -0.046272784 1.013 nan
-0.01517735 -0.046272784 1.013 nan
-0.013322562 -0.046409823 1.016 nan
-0.011422825 -0.046409823 1.016 nan
-0.0095512075 -0.046546858 1.0190001 nan
-0.0076458626 -0.046546858 1.0190001 nan
-0.0057405168 -0.046546858 1.0190001 nan
-0.0038351712 -0.046546858 1.0190001 nan
-0.0019355071 -0.046683893 1.0220001 nan
-2.4623831e-05 -0.046820931 1.0250001 nan
0.0018919408 -0.046820931 1.0250001 nan
0.0038085054 -0.046820931 1.0250001 nan
0.0057250699 -0.046820931 1.0250001 nan
0.0076416344 -0.046820931 1.0250001 nan
0.0095581999 -0.046820931 1.0250001 nan
0.011474764 -0.046820931 1.0250001 nan
0.013391329 -0.046820931 1.0250001 nan
0.015307893 -0.046820931 1.0250001 nan
0.017224457 -0.046820931 1.0250001 nan
0.019141022 -0.046820931 1.0250001 nan
0.021057587 -0.046820931 1.0250001 nan
0.023041392 -0.04695797 1.028 nan
0.024963567 -0.04695797 1.028 nan
0.02680728 -0.046820931 1.0250001 nan
0.028723845 -0.046820931 1.0250001 nan
0.030640408 -0.046820931 1.0250001 nan
0.032556973 -0.046820931 1.0250001 nan
0.034574438 -0.04695797 1.028 nan
0.036390103 -0.046820931 1.0250001 nan
0.038306668 -0.046820931 1.0250001 nan
0.040105507 -0.046683893 1.0220001 nan
0.041893125 -0.046546858 1.0190001 nan
0.043798473 -0.046546858 1.0190001 nan
0.045703817 -0.046546858 1.0190001 nan
0.047469001 -0.046409823 1.016 nan
0.049368735 -0.046409823 1.016 nan
0.051268473 -0.046409823 1.016 nan
0.053168207 -0.046409823 1.016 nan
0.055067945 -0.046409823 1.016 nan
0.056799468 -0.046272784 1.013 nan
0.058693592 -0.046272784 1.013 nan
0.060587719 -0.046272784 1.013 nan
0.062296808 -0.046135746 1.01 nan
0.064185329 -0.046135746 1.01 nan
0.065877587 -0.045998711 1.0070001 nan
0.06776049 -0.045998711 1.0070001 nan
0.069435924 -0.045861673 1.0040001 nan
0.071313225 -0.045861673 1.0040001 nan
0.072971821 -0.045724638 1.001 nan
0.074843511 -0.045724638 1.001 nan
0.076485291 -0.045587599 0.99800003 nan
0.078115836 -0.045450561 0.99500006 nan
0.079735175 -0.045313526 0.99200004 nan
0.081343286 -0.045176491 0.98900002 nan
0.083024308 -0.045085132 0.98700005 nan
0.084611855 -0.044948094 0.98400003 nan
0.086188182 -0.044811055 0.98100007 nan
0.087753296 -0.04467402 0.97800004 nan
0.089307182 -0.044536985 0.97500002 nan
0.090943329 -0.044445626 0.97300005 nan
0.092762664 -0.044445626 0.97300005 nan
0.094290376 -0.044308588 0.97000003 nan
0.0961041 -0.044308588 0.97000003 nan
0.097917825 -0.044308588 0.97000003 nan
-0.053543545 -0.043242391 0.98700005 -2.3002958e+38
-0.051698033 -0.043242391 0.98700005 -2.3395465e+38
-0.049700994 -0.043110959 0.98400003 -2.8719659e+38
-0.047861092 -0.043110959 0.98400003 nan
-0.046161499 -0.043242391 0.98700005 nan
-0.044315986 -0.043242391 0.98700005 nan
-0.042470478 -0.043242391 0.98700005 nan
-0.040707283 -0.043330017 0.98900002 nan
-0.038858034 -0.043330017 0.98900002 nan
-0.037121043 -0.043461453 0.99200004 nan
-0.035479486 -0.043724325 0.99800003 nan
-0.033613406 -0.043724325 0.99800003 nan
-0.031938192 -0.043987196 1.0040001 nan
-0.030150717 -0.044118632 1.0070001 nan
-0.028267808 -0.044118632 1.0070001 nan
-0.026463507 -0.044250067 1.01 nan
-0.024574989 -0.044250067 1.01 nan
-0.022686472 -0.044250067 1.01 nan
-0.020859729 -0.044381503 1.013 nan
-0.018965602 -0.044381503 1.013 nan
-0.017071476 -0.044381503 1.013 nan
-0.015222298 -0.044512939 1.016 nan
-0.013322562 -0.044512939 1.016 nan
-0.011422825 -0.044512939 1.016 nan
-0.0095512075 -0.044644374 1.0190001 nan
-0.0076458626 -0.044644374 1.0190001 nan
-0.0057405168 -0.044644374 1.0190001 nan
-0.0038464621 -0.04477581 1.0220001 nan
-0.0019411884 -0.044907246 1.0250001 nan
-2.4623831e-05 -0.044907246 1.0250001 nan
0.0018919408 -0.044907246 1.0250001 nan
0.0038085054 -0.044907246 1.0250001 nan
0.0057250699 -0.044907246 1.0250001 nan
0.0076416344 -0.044907246 1.0250001 nan
0.0095581999 -0.044907246 1.0250001 nan
0.011474764 -0.044907246 1.0250001 nan
0.013391329 -0.044907246 1.0250001 nan
0.015307893 -0.044907246 1.0250001 nan
0.017224457 -0.044907246 1.0250001 nan
0.019141022 -0.044907246 1.0250001 nan
0.021057587 -0.044907246 1.0250001 nan
0.023041392 -0.045038681 1.028 nan
0.024963567 -0.045038681 1.028 nan
0.02688574 -0.045038681 1.028 nan
0.028723845 -0.044907246 1.0250001 nan
0.030640408 -0.044907246 1.0250001 nan
0.032556973 -0.044907246 1.0250001 nan
0.034574438 -0.045038681 1.028 nan
0.036390103 -0.044907246 1.0250001 nan
0.038306668 -0.044907246 1.0250001 nan
0.040105507 -0.04477581 1.0220001 nan
0.042016461 -0.04477581 1.0220001 nan
0.043798473 -0.044644374 1.0190001 nan
0.045703817 -0.044644374 1.0190001 nan
0.047609162 -0.044644374 1.0190001 nan
0.049368735 -0.044512939 1.016 nan
0.051268473 -0.044512939 1.016 nan
0.053168207 -0.044512939 1.016 nan
0.055067945 -0.044512939 1.016 nan
0.056967679 -0.044512939 1.016 nan
0.058693592 -0.044381503 1.013 nan
0.060587719 -0.044381503 1.013 nan
0.062481847 -0.044381503 1.013 nan
0.064185329 -0.044250067 1.01 nan
0.065877587 -0.044118632 1.0070001 nan
0.06776049 -0.044118632 1.0070001 nan
0.069435924 -0.043987196 1.0040001 nan
0.071313225 -0.043987196 1.0040001 nan
0.072971821 -0.04385576 1.001 nan
0.074843511 -0.04385576 1.001 nan
0.076485291 -0.043724325 0.99800003 nan
0.078351364 -0.043724325 0.99800003 nan
0.079976305 -0.043592885 0.99500006 nan
0.081343286 -0.043330017 0.98900002 nan
0.083024308 -0.043242391 0.98700005 nan
0.084611855 -0.043110959 0.98400003 nan
0.086188182 -0.04297952 0.98100007 nan
0.087753296 -0.042848084 0.97800004 nan
0.089307182 -0.042716648 0.97500002 nan
0.090943329 -0.042629026 0.97300005 nan
0.092476651 -0.04249759 0.97000003 nan
0.094290376 -0.04249759 0.97000003 nan
0.095806867 -0.042366151 0.96700007 nan
0.097614981 -0.042366151 0.96700007 nan
-0.053380799 -0.041273821 0.98400003 -2.2603662e+38
-0.051540896 -0.041273821 0.98400003 -2.352734e+38
-0.049549464 -0.041147981 0.98100007 -3.0979872e+38
-0.047861092 -0.041273821 0.98400003 nan
-0.046161499 -0.041399654 0.98700005 nan
-0.044315986 -0.041399654 0.98700005 nan
-0.042470478 -0.041399654 0.98700005 nan
-0.040707283 -0.041483544 0.98900002 nan
-0.038858034 -0.041483544 0.98900002 nan
-0.037121043 -0.041609377 0.99200004 nan
-0.035479486 -0.04186105 0.99800003 nan
-0.033613406 -0.04186105 0.99800003 nan
-0.031938192 -0.042112716 1.0040001 nan
-0.030150717 -0.042238552 1.0070001 nan
-0.028352024 -0.042364389 1.01 nan
-0.026463507 -0.042364389 1.01 nan
-0.024574989 -0.042364389 1.01 nan
-0.022753857 -0.042490222 1.013 nan
-0.020859729 -0.042490222 1.013 nan
-0.018965602 -0.042490222 1.013 nan
-0.017122034 -0.042616058 1.016 nan
-0.015267245 -0.042741891 1.0190001 nan
-0.013361899 -0.042741891 1.0190001 nan
-0.011456554 -0.042741891 1.0190001 nan
-0.0095512075 -0.042741891 1.0190001 nan
-0.0076683722 -0.042867724 1.0220001 nan
-0.0057574175 -0.042867724 1.0220001 nan
-0.0038464621 -0.042867724 1.0220001 nan
-0.0019411884 -0.04299356 1.0250001 nan
-2.4623831e-05 -0.04299356 1.0250001 nan
0.0018919408 -0.04299356 1.0250001 nan
0.0038085054 -0.04299356 1.0250001 nan
0.0057250699 -0.04299356 1.0250001 nan
0.0076416344 -0.04299356 1.0250001 nan
0.0095581999 -0.04299356 1.0250001 nan
0.011474764 -0.04299356 1.0250001 nan
0.013391329 -0.04299356 1.0250001 nan
0.015307893 -0.04299356 1.0250001 nan
0.017224457 -0.04299356 1.0250001 nan
0.019197045 -0.043119397 1.028 nan
0.021119218 -0.043119397 1.028 nan
0.023041392 -0.043119397 1.028 nan
0.024963567 -0.043119397 1.028 nan
0.02688574 -0.043119397 1.028 nan
0.028723845 -0.04299356 1.0250001 nan
0.030730091 -0.043119397 1.028 nan
0.032556973 -0.04299356 1.0250001 nan
0.034574438 -0.043119397 1.028 nan
0.036390103 -0.04299356 1.0250001 nan
0.038306668 -0.04299356 1.0250001 nan
0.04022323 -0.04299356 1.0250001 nan
0.042016461 -0.042867724 1.0220001 nan
0.043927416 -0.042867724 1.0220001 nan
0.045838371 -0.042867724 1.0220001 nan
0.047609162 -0.042741891 1.0190001 nan
0.04951451 -0.042741891 1.0190001 nan
0.051419854 -0.042741891 1.0190001 nan
0.053325199 -0.042741891 1.0190001 nan
0.055067945 -0.042616058 1.016 nan
0.056967679 -0.042616058 1.016 nan
0.058867417 -0.042616058 1.016 nan
0.060767155 -0.042616058 1.016 nan
0.062481847 -0.042490222 1.013 nan
0.064375974 -0.042490222 1.013 nan
0.066073842 -0.042364389 1.01 nan
0.06776049 -0.042238552 1.0070001 nan
0.069643401 -0.042238552 1.0070001 nan
0.071313225 -0.042112716 1.0040001 nan
0.073190518 -0.042112716 1.0040001 nan
0.074843511 -0.041986883 1.001 nan
0.076715201 -0.041986883 1.001 nan
0.078351364 -0.04186105 0.99800003 nan
0.079976305 -0.041735213 0.99500006 nan
0.081343286 -0.041483544 0.98900002 nan
0.083192542 -0.041483544 0.98900002 nan
0.084869817 -0.041399654 0.98700005 nan
0.086188182 -0.041147981 0.98100007 nan
0.087753296 -0.041022148 0.97800004 nan
0.089581974 -0.041022148 0.97800004 nan
0.090943329 -0.040812425 0.97300005 nan
0.092476651 -0.040686589 0.97000003 nan
0.094290376 -0.040686589 0.97000003 nan
0.095806867 -0.040560752 0.96700007 nan
0.097614981 -0.040560752 0.96700007 nan
0.099114649 -0.040434919 0.96400005 nan
-0.053055305 -0.039196212 0.97800004 -2.300554e+38
-0.05122662 -0.039196212 0.97800004 -2.3793181e+38
-0.049397938 -0.039196212 0.97800004 -3.2309623e+38
-0.047715172 -0.039316446 0.98100007 nan
-0.046161499 -0.039556913 0.98700005 nan
-0.044315986 -0.039556913 0.98700005 nan
-0.042470478 -0.039556913 0.98700005 nan
-0.040707283 -0.03963707 0.98900002 nan
-0.038858034 -0.03963707 0.98900002 nan
-0.037121043 -0.039757304 0.99200004 nan
-0.035479486 -0.039997771 0.99800003 nan
-0.033613406 -0.039997771 0.99800003 nan
-0.031938192 -0.040238239 1.0040001 nan
-0.030150717 -0.040358473 1.0070001 nan
-0.028352024 -0.040478706 1.01 nan
-0.026463507 -0.040478706 1.01 nan
-0.024647983 -0.04059894 1.013 nan
-0.022753857 -0.04059894 1.013 nan
-0.020859729 -0.04059894 1.013 nan
-0.018965602 -0.04059894 1.013 nan
-0.017122034 -0.040719174 1.016 nan
-0.015267245 -0.040839408 1.0190001 nan
-0.013361899 -0.040839408 1.0190001 nan
-0.011456554 -0.040839408 1.0190001 nan
-0.009579327 -0.040959641 1.0220001 nan
-0.0076683722 -0.040959641 1.0220001 nan
-0.0057574175 -0.040959641 1.0220001 nan
-0.0038464621 -0.040959641 1.0220001 nan
-0.0019411884 -0.041079875 1.0250001 nan
-2.4695901e-05 -0.041200109 1.028 nan
0.0018974781 -0.041200109 1.028 nan
0.0038196521 -0.041200109 1.028 nan
0.0057418267 -0.041200109 1.028 nan
0.0076640006 -0.041200109 1.028 nan
0.0095581999 -0.041079875 1.0250001 nan
0.011508348 -0.041200109 1.028 nan
0.013430523 -0.041200109 1.028 nan
0.015352696 -0.041200109 1.028 nan
0.01727487 -0.041200109 1.028 nan
0.019197045 -0.041200109 1.028 nan
0.021119218 -0.041200109 1.028 nan
0.023041392 -0.041200109 1.028 nan
0.024963567 -0.041200109 1.028 nan
0.02688574 -0.041200109 1.028 nan
0.028807914 -0.041200109 1.028 nan
0.030730091 -0.041200109 1.028 nan
0.032652263 -0.041200109 1.028 nan
0.034574438 -0.041200109 1.028 nan
0.036390103 -0.041079875 1.0250001 nan
0.038306668 -0.041079875 1.0250001 nan
0.04022323 -0.041079875 1.0250001 nan
0.042139795 -0.041079875 1.0250001 nan
0.04405636 -0.041079875 1.0250001 nan
0.045972925 -0.041079875 1.0250001 nan
0.047749326 -0.040959641 1.0220001 nan
0.04966028 -0.040959641 1.0220001 nan
0.051419854 -0.040839408 1.0190001 nan
0.053325199 -0.040839408 1.0190001 nan
0.055230547 -0.040839408 1.0190001 nan
0.056967679 -0.040719174 1.016 nan
0.058867417 -0.040719174 1.016 nan
0.060767155 -0.040719174 1.016 nan
0.062481847 -0.04059894 1.013 nan
0.064375974 -0.04059894 1.013 nan
0.066073842 -0.040478706 1.01 nan
0.067962363 -0.040478706 1.01 nan
0.069643401 -0.040358473 1.0070001 nan
0.071313225 -0.040238239 1.0040001 nan
0.073190518 -0.040238239 1.0040001 nan
0.074843511 -0.040118005 1.001 nan
0.076715201 -0.040118005 1.001 nan
0.078351364 -0.039997771 0.99800003 nan
0.079976305 -0.039877538 0.99500006 nan
0.081343286 -0.03963707 0.98900002 nan
0.083192542 -0.03963707 0.98900002 nan
0.084869817 -0.039556913 0.98700005 nan
0.086451761 -0.039436683 0.98400003 nan
0.08802247 -0.039316446 0.98100007 nan
0.089581974 -0.039196212 0.97800004 nan
0.090943329 -0.038995825 0.97300005 nan
0.092476651 -0.038875591 0.97000003 nan
0.093998753 -0.038755354 0.96700007 nan
0.095806867 -0.038755354 0.96700007 nan
0.097312145 -0.038635124 0.96400005 nan
0.09890902 -0.038554966 0.96200007 nan
0.10039373 -0.038434733 0.95900005 nan
-0.054715633 -0.037255645 0.97500002 -2.5673906e+38
-0.052892558 -0.037255645 0.97500002 -2.3672241e+38
-0.051069487 -0.037255645 0.97500002 -2.4324872e+38
-0.049397938 -0.037370276 0.97800004 -3.3639893e+38
-0.047715172 -0.03748491 0.98100007 nan
-0.04602119 -0.037599545 0.98400003 nan
-0.044315986 -0.037714176 0.98700005 nan
-0.042470478 -0.037714176 0.98700005 nan
-0.040707283 -0.0377906 0.98900002 nan
-0.038858034 -0.0377906 0.98900002 nan
-0.037121043 -0.037905231 0.99200004 nan
-0.035479486 -0.038134497 0.99800003 nan
-0.033714451 -0.038249128 1.001 nan
-0.031938192 -0.038363758 1.0040001 nan
-0.030150717 -0.038478397 1.0070001 nan
-0.028352024 -0.038593028 1.01 nan
-0.026463507 -0.038593028 1.01 nan
-0.024647983 -0.038707659 1.013 nan
-0.022753857 -0.038707659 1.013 nan
-0.020859729 -0.038707659 1.013 nan
-0.01902177 -0.038822293 1.016 nan
-0.017122034 -0.038822293 1.016 nan
-0.015267245 -0.038936924 1.0190001 nan
-0.013361899 -0.038936924 1.0190001 nan
-0.011456554 -0.038936924 1.0190001 nan
-0.009579327 -0.039051555 1.0220001 nan
-0.0076683722 -0.039051555 1.0220001 nan
-0.0057574175 -0.039051555 1.0220001 nan
-0.0038464621 -0.039051555 1.0220001 nan
-0.0019411884 -0.03916619 1.0250001 nan
-2.4695901e-05 -0.039280824 1.028 nan
0.0018974781 -0.039280824 1.028 nan
0.0038196521 -0.039280824 1.028 nan
0.0057418267 -0.039280824 1.028 nan
0.0076416344 -0.03916619 1.0250001 nan
0.0095581999 -0.03916619 1.0250001 nan
0.011508348 -0.039280824 1.028 nan
0.013430523 -0.039280824 1.028 nan
0.015352696 -0.039280824 1.028 nan
0.01727487 -0.039280824 1.028 nan
0.019197045 -0.039280824 1.028 nan
0.021119218 -0.039280824 1.028 nan
0.023041392 -0.039280824 1.028 nan
0.024963567 -0.039280824 1.028 nan
0.02688574 -0.039280824 1.028 nan
0.028807914 -0.039280824 1.028 nan
0.030730091 -0.039280824 1.028 nan
0.032652263 -0.039280824 1.028 nan
0.034574438 -0.039280824 1.028 nan
0.036390103 -0.03916619 1.0250001 nan
0.038306668 -0.03916619 1.0250001 nan
0.04022323 -0.03916619 1.0250001 nan
0.042139795 -0.03916619 1.0250001 nan
0.04405636 -0.03916619 1.0250001 nan
0.045972925 -0.03916619 1.0250001 nan
0.047749326 -0.039051555 1.0220001 nan
0.04966028 -0.039051555 1.0220001 nan
0.051571235 -0.039051555 1.0220001 nan
0.053325199 -0.038936924 1.0190001 nan
0.055230547 -0.038936924 1.0190001 nan
0.056967679 -0.038822293 1.016 nan
0.058867417 -0.038822293 1.016 nan
0.060767155 -0.038822293 1.016 nan
0.062481847 -0.038707659 1.013 nan
0.064375974 -0.038707659 1.013 nan
0.066073842 -0.038593028 1.01 nan
0.067962363 -0.038593028 1.01 nan
0.069643401 -0.038478397 1.0070001 nan
0.071313225 -0.038363758 1.0040001 nan
0.073190518 -0.038363758 1.0040001 nan
0.074843511 -0.038249128 1.001 nan
0.076715201 -0.038249128 1.001 nan
0.078351364 -0.038134497 0.99800003 nan
0.079735175 -0.037905231 0.99200004 nan
0.081343286 -0.0377906 0.98900002 nan
0.083192542 -0.0377906 0.98900002 nan
0.084869817 -0.037714176 0.98700005 nan
0.086451761 -0.037599545 0.98400003 nan
0.08802247 -0.03748491 0.98100007 nan
0.089307182 -0.037255645 0.97500002 nan
0.090943329 -0.03717922 0.97300005 nan
0.092476651 -0.03706459 0.97000003 nan
0.093998753 -0.036949955 0.96700007 nan
0.095806867 -0.036949955 0.96700007 nan
0.097312145 -0.036835324 0.96400005 nan
0.09890902 -0.036758903 0.96200007 nan
0.10039373 -0.036644269 0.95900005 nan
0.10218689 -0.036644269 0.95900005 nan
-0.056422729 -0.03536262 0.97300005 -2.4739283e+38
-0.054603398 -0.03536262 0.97300005 -2.5139613e+38
-0.052892558 -0.035435311 0.97500002 -2.3271917e+38
-0.051069487 -0.035435311 0.97500002 -2.4989488e+38
-0.049397938 -0.03554434 0.97800004 nan
-0.047715172 -0.035653371 0.98100007 nan
-0.04602119 -0.035762407 0.98400003 nan
-0.044315986 -0.035871435 0.98700005 nan
-0.042470478 -0.035871435 0.98700005 nan
-0.040707283 -0.035944127 0.98900002 nan
-0.038975906 -0.036053155 0.99200004 nan
-0.037233304 -0.036162186 0.99500006 nan
-0.035479486 -0.036271222 0.99800003 nan
-0.033714451 -0.03638025 1.001 nan
-0.031938192 -0.036489282 1.0040001 nan
-0.030150717 -0.036598317 1.0070001 nan
-0.028352024 -0.036707345 1.01 nan
-0.02654211 -0.036816377 1.013 nan
-0.024647983 -0.036816377 1.013 nan
-0.022753857 -0.036816377 1.013 nan
-0.020921506 -0.036925413 1.016 nan
-0.01902177 -0.036925413 1.016 nan
-0.01717259 -0.037034441 1.0190001 nan
-0.015267245 -0.037034441 1.0190001 nan
-0.013401237 -0.037143473 1.0220001 nan
-0.011490283 -0.037143473 1.0220001 nan
-0.009579327 -0.037143473 1.0220001 nan
-0.0076683722 -0.037143473 1.0220001 nan
-0.0057574175 -0.037143473 1.0220001 nan
-0.0038464621 -0.037143473 1.0220001 nan
-0.00194687 -0.037361536 1.028 nan
-2.4695901e-05 -0.037361536 1.028 nan
0.0018974781 -0.037361536 1.028 nan
0.0038196521 -0.037361536 1.028 nan
0.0057418267 -0.037361536 1.028 nan
0.0076640006 -0.037361536 1.028 nan
0.009586175 -0.037361536 1.028 nan
0.011508348 -0.037361536 1.028 nan
0.013430523 -0.037361536 1.028 nan
0.015352696 -0.037361536 1.028 nan
0.01727487 -0.037361536 1.028 nan
0.019197045 -0.037361536 1.028 nan
0.021119218 -0.037361536 1.028 nan
0.023041392 -0.037361536 1.028 nan
0.024963567 -0.037361536 1.028 nan
0.02688574 -0.037361536 1.028 nan
0.028723845 -0.037252504 1.0250001 nan
0.030730091 -0.037361536 1.028 nan
0.032556973 -0.037252504 1.0250001 nan
0.034473538 -0.037252504 1.0250001 nan
0.036390103 -0.037252504 1.0250001 nan
0.038306668 -0.037252504 1.0250001 nan
0.04022323 -0.037252504 1.0250001 nan
0.042139795 -0.037252504 1.0250001 nan
0.04405636 -0.037252504 1.0250001 nan
0.045972925 -0.037252504 1.0250001 nan
0.04788949 -0.037252504 1.0250001 nan
0.049806055 -0.037252504 1.0250001 nan
0.051571235 -0.037143473 1.0220001 nan
0.053482193 -0.037143473 1.0220001 nan
0.055230547 -0.037034441 1.0190001 nan
0.056967679 -0.036925413 1.016 nan
0.058867417 -0.036925413 1.016 nan
0.060767155 -0.036925413 1.016 nan
0.062481847 -0.036816377 1.013 nan
0.064375974 -0.036816377 1.013 nan
0.066073842 -0.036707345 1.01 nan
0.06776049 -0.036598317 1.0070001 nan
0.069643401 -0.036598317 1.0070001 nan
0.071313225 -0.036489282 1.0040001 nan
0.073190518 -0.036489282 1.0040001 nan
0.074843511 -0.03638025 1.001 nan
0.076715201 -0.03638025 1.001 nan
0.078351364 -0.036271222 0.99800003 nan
0.079976305 -0.036162186 0.99500006 nan
0.081343286 -0.035944127 0.98900002 nan
0.083192542 -0.035944127 0.98900002 nan
0.084869817 -0.035871435 0.98700005 nan
0.086451761 -0.035762407 0.98400003 nan
0.08802247 -0.035653371 0.98100007 nan
0.089581974 -0.03554434 0.97800004 nan
0.090943329 -0.03536262 0.97300005 nan
0.092476651 -0.035253592 0.97000003 nan
0.093998753 -0.035144556 0.96700007 nan
0.095806867 -0.035144556 0.96700007 nan
0.097312145 -0.035035528 0.96400005 nan
0.09890902 -0.03496284 0.96200007 nan
0.10070778 -0.03496284 0.96200007 nan
0.10218689 -0.034853805 0.95900005 nan
-0.058242064 -0.033546019 0.97300005 -2.3142649e+38
-0.056422729 -0.033546019 0.97300005 -2.3409529e+38
-0.054603398 -0.033546019 0.97300005 -2.3542448e+38
-0.052892558 -0.033614974 0.97500002 -2.1941636e+38
-0.051069487 -0.033614974 0.97500002 -2.459072e+38
-0.049397938 -0.033718407 0.97800004 nan
-0.047569253 -0.033718407 0.97800004 nan
-0.04602119 -0.033925269 0.98400003 nan
-0.044315986 -0.034028698 0.98700005 nan
-0.042556535 -0.034097653 0.98900002 nan
-0.040707283 -0.034097653 0.98900002 nan
-0.038975906 -0.034201082 0.99200004 nan
-0.037233304 -0.034304511 0.99500006 nan
-0.035479486 -0.034407943 0.99800003 nan
-0.033714451 -0.034511376 1.001 nan
-0.031938192 -0.034614805 1.0040001 nan
-0.030150717 -0.034718238 1.0070001 nan
-0.028352024 -0.034821667 1.01 nan
-0.02654211 -0.034925096 1.013 nan
-0.024647983 -0.034925096 1.013 nan
-0.022753857 -0.034925096 1.013 nan
-0.020921506 -0.035028528 1.016 nan
-0.01902177 -0.035028528 1.016 nan
-0.01717259 -0.035131957 1.0190001 nan
-0.015267245 -0.035131957 1.0190001 nan
-0.013401237 -0.035235386 1.0220001 nan
-0.011490283 -0.035235386 1.0220001 nan
-0.009579327 -0.035235386 1.0220001 nan
-0.0076683722 -0.035235386 1.0220001 nan
-0.0057574175 -0.035235386 1.0220001 nan
-0.0038577532 -0.035338819 1.0250001 nan
-0.00194687 -0.035442252 1.028 nan
-2.4695901e-05 -0.035442252 1.028 nan
0.0018974781 -0.035442252 1.028 nan
0.0038196521 -0.035442252 1.028 nan
0.0057418267 -0.035442252 1.028 nan
0.0076640006 -0.035442252 1.028 nan
0.009586175 -0.035442252 1.028 nan
0.011508348 -0.035442252 1.028 nan
0.013430523 -0.035442252 1.028 nan
0.015352696 -0.035442252 1.028 nan
0.01727487 -0.035442252 1.028 nan
0.019197045 -0.035442252 1.028 nan
0.021119218 -0.035442252 1.028 nan
0.023041392 -0.035442252 1.028 nan
0.024963567 -0.035442252 1.028 nan
0.02688574 -0.035442252 1.028 nan
0.028723845 -0.035338819 1.0250001 nan
0.030730091 -0.035442252 1.028 nan
0.032556973 -0.035338819 1.0250001 nan
0.034473538 -0.035338819 1.0250001 nan
0.036390103 -0.035338819 1.0250001 nan
0.038306668 -0.035338819 1.0250001 nan
0.04022323 -0.035338819 1.0250001 nan
0.042139795 -0.035338819 1.0250001 nan
0.04405636 -0.035338819 1.0250001 nan
0.045972925 -0.035338819 1.0250001 nan
0.04788949 -0.035338819 1.0250001 nan
0.049806055 -0.035338819 1.0250001 nan
0.051571235 -0.035235386 1.0220001 nan
0.053482193 -0.035235386 1.0220001 nan
0.055230547 -0.035131957 1.0190001 nan
0.056967679 -0.035028528 1.016 nan
0.058867417 -0.035028528 1.016 nan
0.060767155 -0.035028528 1.016 nan
0.062481847 -0.034925096 1.013 nan
0.064375974 -0.034925096 1.013 nan
0.066073842 -0.034821667 1.01 nan
0.06776049 -0.034718238 1.0070001 nan
0.069643401 -0.034718238 1.0070001 nan
0.071313225 -0.034614805 1.0040001 nan
0.073190518 -0.034614805 1.0040001 nan
0.074843511 -0.034511376 1.001 nan
0.076715201 -0.034511376 1.001 nan
0.078351364 -0.034407943 0.99800003 nan
0.079976305 -0.034304511 0.99500006 nan
0.081343286 -0.034097653 0.98900002 nan
0.083192542 -0.034097653 0.98900002 nan
0.085041791 -0.034097653 0.98900002 nan
0.086451761 -0.033925269 0.98400003 nan
0.08802247 -0.033821836 0.98100007 nan
0.089581974 -0.033718407 0.97800004 nan
0.090943329 -0.033546019 0.97300005 nan
0.092476651 -0.03344259 0.97000003 nan
0.093998753 -0.033339158 0.96700007 nan
0.095509641 -0.033235729 0.96400005 nan
0.097110257 -0.033166777 0.96200007 nan
0.09890902 -0.033166777 0.96200007 nan
0.10070778 -0.033166777 0.96200007 nan
0.10250656 -0.033166777 0.96200007 nan
0.10430532 -0.033166777 0.96200007 nan
-0.058242064 -0.031729419 0.97300005 -2.2344068e+38
-0.056422729 -0.031729419 0.97300005 -2.2345607e+38
-0.054603398 -0.031729419 0.97300005 -2.2346127e+38
-0.052784063 -0.031729419 0.97300005 -2.06124e+38
-0.051069487 -0.031794641 0.97500002 -2.3527336e+38
-0.049246412 -0.031794641 0.97500002 nan
-0.047569253 -0.031892471 0.97800004 nan
-0.04602119 -0.032088131 0.98400003 nan
-0.044315986 -0.032185957 0.98700005 nan
-0.042556535 -0.032251179 0.98900002 nan
-0.040830765 -0.032349009 0.99200004 nan
-0.038975906 -0.032349009 0.99200004 nan
-0.037233304 -0.032446835 0.99500006 nan
-0.035479486 -0.032544669 0.99800003 nan
-0.033714451 -0.032642499 1.001 nan
-0.031938192 -0.032740325 1.0040001 nan
-0.030240541 -0.032935984 1.01 nan
-0.028352024 -0.032935984 1.01 nan
-0.02654211 -0.033033814 1.013 nan
-0.024647983 -0.033033814 1.013 nan
-0.022753857 -0.033033814 1.013 nan
-0.020921506 -0.033131648 1.016 nan
-0.019077936 -0.033229474 1.0190001 nan
-0.01717259 -0.033229474 1.0190001 nan
-0.015267245 -0.033229474 1.0190001 nan
-0.013401237 -0.033327304 1.0220001 nan
-0.011490283 -0.033327304 1.0220001 nan
-0.009579327 -0.033327304 1.0220001 nan
-0.0076683722 -0.033327304 1.0220001 nan
-0.0057574175 -0.033327304 1.0220001 nan
-0.0038577532 -0.033425134 1.0250001 nan
-0.00194687 -0.033522964 1.028 nan
-2.4695901e-05 -0.033522964 1.028 nan
0.0018974781 -0.033522964 1.028 nan
0.0038196521 -0.033522964 1.028 nan
0.0057418267 -0.033522964 1.028 nan
0.0076640006 -0.033522964 1.028 nan
0.009586175 -0.033522964 1.028 nan
0.011508348 -0.033522964 1.028 nan
0.013430523 -0.033522964 1.028 nan
0.015352696 -0.033522964 1.028 nan
0.01727487 -0.033522964 1.028 nan
0.019197045 -0.033522964 1.028 nan
0.021119218 -0.033522964 1.028 nan
0.023041392 -0.033522964 1.028 nan
0.024963567 -0.033522964 1.028 nan
0.02688574 -0.033522964 1.028 nan
0.028723845 -0.033425134 1.0250001 nan
0.030640408 -0.033425134 1.0250001 nan
0.032556973 -0.033425134 1.0250001 nan
0.034473538 -0.033425134 1.0250001 nan
0.036390103 -0.033425134 1.0250001 nan
0.038306668 -0.033425134 1.0250001 nan
0.04022323 -0.033425134 1.0250001 nan
0.042139795 -0.033425134 1.0250001 nan
0.04405636 -0.033425134 1.0250001 nan
0.045972925 -0.033425134 1.0250001 nan
0.04788949 -0.033425134 1.0250001 nan
0.04966028 -0.033327304 1.0220001 nan
0.051571235 -0.033327304 1.0220001 nan
0.053482193 -0.033327304 1.0220001 nan
0.055230547 -0.033229474 1.0190001 nan
0.056967679 -0.033131648 1.016 nan
0.058867417 -0.033131648 1.016 nan
0.060767155 -0.033131648 1.016 nan
0.062481847 -0.033033814 1.013 nan
0.064375974 -0.033033814 1.013 nan
0.066073842 -0.032935984 1.01 nan
0.067962363 -0.032935984 1.01 nan
0.069643401 -0.032838158 1.0070001 nan
0.071313225 -0.032740325 1.0040001 nan
0.073190518 -0.032740325 1.0040001 nan
0.074843511 -0.032642499 1.001 nan
0.076715201 -0.032642499 1.001 nan
0.078351364 -0.032544669 0.99800003 nan
0.079976305 -0.032446835 0.99500006 nan
0.081590034 -0.032349009 0.99200004 nan
0.083192542 -0.032251179 0.98900002 nan
0.085041791 -0.032251179 0.98900002 nan
0.086715333 -0.032185957 0.98700005 nan
0.08802247 -0.031990297 0.98100007 nan
0.089581974 -0.031892471 0.97800004 nan
0.090943329 -0.031729419 0.97300005 nan
0.092476651 -0.031631593 0.97000003 nan
0.093998753 -0.031533759 0.96700007 nan
0.095509641 -0.031435929 0.96400005 nan
0.097110257 -0.031370714 0.96200007 nan
0.098600574 -0.031272881 0.95900005 nan
0.10070778 -0.031370714 0.96200007 nan
0.10250656 -0.031370714 0.96200007 nan
0.10430532 -0.031370714 0.96200007 nan
-0.058242064 -0.02991282 0.97300005 -2.1678922e+38
-0.056422729 -0.02991282 0.97300005 -2.1414614e+38
-0.054603398 -0.02991282 0.97300005 -2.1547547e+38
-0.052784063 -0.02991282 0.97300005 -1.9680912e+38
-0.051069487 -0.029974304 0.97500002 -2.2995644e+38
-0.049397938 -0.030066533 0.97800004 nan
-0.047569253 -0.030066533 0.97800004 nan
-0.04602119 -0.030250993 0.98400003 nan
-0.044405788 -0.030404706 0.98900002 nan
-0.042556535 -0.030404706 0.98900002 nan
-0.040830765 -0.030496934 0.99200004 nan
-0.039093774 -0.030589161 0.99500006 nan
-0.037233304 -0.030589161 0.99500006 nan
-0.035479486 -0.030681392 0.99800003 nan
-0.033714451 -0.030773621 1.001 nan
-0.030150717 -0.030958079 1.0070001 nan
-0.028352024 -0.031050306 1.01 nan
-0.02654211 -0.031142533 1.013 nan
-0.024647983 -0.031142533 1.013 nan
-0.022753857 -0.031142533 1.013 nan
-0.020921506 -0.031234764 1.016 nan
-0.019077936 -0.031326991 1.0190001 nan
-0.01717259 -0.031326991 1.0190001 nan
-0.015267245 -0.031326991 1.0190001 nan
-0.013401237 -0.031419218 1.0220001 nan
-0.011490283 -0.031419218 1.0220001 nan
-0.009579327 -0.031419218 1.0220001 nan
-0.0076683722 -0.031419218 1.0220001 nan
-0.0057574175 -0.031419218 1.0220001 nan
-0.0038577532 -0.031511448 1.0250001 nan
-0.00194687 -0.031603679 1.028 nan
-2.4695901e-05 -0.031603679 1.028 nan
0.02680728 -0.031511448 1.0250001 nan
0.028723845 -0.031511448 1.0250001 nan
0.030640408 -0.031511448 1.0250001 nan
0.032556973 -0.031511448 1.0250001 nan
0.034473538 -0.031511448 1.0250001 nan
0.036390103 -0.031511448 1.0250001 nan
0.038306668 -0.031511448 1.0250001 nan
0.04022323 -0.031511448 1.0250001 nan
0.04966028 -0.031419218 1.0220001 nan
0.051571235 -0.031419218 1.0220001 nan
0.053482193 -0.031419218 1.0220001 nan
0.055230547 -0.031326991 1.0190001 nan
0.056967679 -0.031234764 1.016 nan
0.058867417 -0.031234764 1.016 nan
0.060767155 -0.031234764 1.016 nan
0.062481847 -0.031142533 1.013 nan
0.064375974 -0.031142533 1.013 nan
0.066073842 -0.031050306 1.01 nan
0.067962363 -0.031050306 1.01 nan
0.069643401 -0.030958079 1.0070001 nan
0.071313225 -0.030865848 1.0040001 nan
0.073190518 -0.030865848 1.0040001 nan
0.074843511 -0.030773621 1.001 nan
0.076715201 -0.030773621 1.001 nan
0.078351364 -0.030681392 0.99800003 nan
0.079976305 -0.030589161 0.99500006 nan
0.081590034 -0.030496934 0.99200004 nan
0.083192542 -0.030404706 0.98900002 nan
0.085041791 -0.030404706 0.98900002 nan
0.086715333 -0.03034322 0.98700005 nan
0.08802247 -0.030158764 0.98100007 nan
0.089581974 -0.030066533 0.97800004 nan
0.091130257 -0.029974304 0.97500002 nan
0.092476651 -0.029820591 0.97000003 nan
0.094290376 -0.029820591 0.97000003 nan
0.095509641 -0.029636133 0.96400005 nan
0.097110257 -0.029574648 0.96200007 nan
0.098600574 -0.029482419 0.95900005 nan
0.10039373 -0.029482419 0.95900005 nan
0.10218689 -0.029482419 0.95900005 nan
0.10430532 -0.029574648 0.96200007 nan
-0.058242064 -0.028096218 0.97300005 -1.9410901e+38
-0.056248765 -0.028009592 0.97000003 -1.8347506e+38
-0.054435041 -0.028009592 0.97000003 -1.834752e+38
-0.052784063 -0.028096218 0.97300005 -1.7814278e+38
-0.051069487 -0.028153971 0.97500002 -2.2729801e+38
-0.049397938 -0.028240599 0.97800004 nan
-0.047569253 -0.028240599 0.97800004 nan
-0.04602119 -0.028413855 0.98400003 nan
-0.044405788 -0.028558232 0.98900002 nan
-0.042556535 -0.028558232 0.98900002 nan
-0.040830765 -0.02864486 0.99200004 nan
-0.039093774 -0.02873149 0.99500006 nan
-0.037345566 -0.028818116 0.99800003 nan
-0.035586137 -0.028904743 1.001 nan
-0.033714451 -0.028904743 1.001 nan
-0.031938192 -0.028991371 1.0040001 nan
-0.030150717 -0.029077997 1.0070001 nan
-0.028352024 -0.029164625 1.01 nan
-0.02654211 -0.029251253 1.013 nan
-0.024647983 -0.029251253 1.013 nan
-0.022753857 -0.029251253 1.013 nan
-0.020921506 -0.029337883 1.016 nan
-0.01902177 -0.029337883 1.016 nan
-0.017122034 -0.029337883 1.016 nan
-0.015267245 -0.029424509 1.0190001 nan
-0.013401237 -0.029511137 1.0220001 nan
-0.011490283 -0.029511137 1.0220001 nan
-0.009579327 -0.029511137 1.0220001 nan
-0.0076683722 -0.029511137 1.0220001 nan
-0.0057574175 -0.029511137 1.0220001 nan
-0.0038577532 -0.029597765 1.0250001 nan
0.04966028 -0.029511137 1.0220001 nan
0.051571235 -0.029511137 1.0220001 nan
0.053325199 -0.029424509 1.0190001 nan
0.055230547 -0.029424509 1.0190001 nan
0.056967679 -0.029337883 1.016 nan
0.058867417 -0.029337883 1.016 nan
0.060767155 -0.029337883 1.016 nan
0.062481847 -0.029251253 1.013 nan
0.064375974 -0.029251253 1.013 nan
0.066270098 -0.029251253 1.013 nan
0.067962363 -0.029164625 1.01 nan
0.069643401 -0.029077997 1.0070001 nan
0.071313225 -0.028991371 1.0040001 nan
0.073190518 -0.028991371 1.0040001 nan
0.074843511 -0.028904743 1.001 nan
0.076715201 -0.028904743 1.001 nan
0.078351364 -0.028818116 0.99800003 nan
0.079976305 -0.02873149 0.99500006 nan
0.081590034 -0.02864486 0.99200004 nan
0.083444893 -0.02864486 0.99200004 nan
0.085041791 -0.028558232 0.98900002 nan
0.086715333 -0.028500481 0.98700005 nan
0.08802247 -0.028327227 0.98100007 nan
0.089581974 -0.028240599 0.97800004 nan
0.091130257 -0.028153971 0.97500002 nan
0.092762664 -0.028096218 0.97300005 nan
0.094290376 -0.028009592 0.97000003 nan
0.095806867 -0.027922964 0.96700007 nan
0.09680742 -0.027691957 0.95900005 nan
0.098292127 -0.027605331 0.95600003 nan
0.099870294 -0.027547577 0.95400006 nan
0.1016541 -0.027547577 0.95400006 nan
0.10343792 -0.027547577 0.95400006 nan
-0.05806249 -0.026198592 0.97000003 -1.8343352e+38
-0.056248765 -0.026198592 0.97000003 -1.7014118e+38
-0.054435041 -0.026198592 0.97000003 -1.7014122e+38
-0.052621316 -0.026198592 0.97000003 -1.7014124e+38
-0.051069487 -0.026333636 0.97500002 -2.2596878e+38
-0.049397938 -0.026414663 0.97800004 nan
-0.047569253 -0.026414663 0.97800004 nan
-0.04602119 -0.026576716 0.98400003 nan
-0.044315986 -0.026657742 0.98700005 nan
-0.042556535 -0.02671176 0.98900002 nan
-0.040830765 -0.026792787 0.99200004 nan
-0.039093774 -0.026873814 0.99500006 nan
-0.037345566 -0.026954839 0.99800003 nan
-0.035586137 -0.027035866 1.001 nan
-0.033714451 -0.027035866 1.001 nan
-0.031938192 -0.027116893 1.0040001 nan
-0.030150717 -0.027197918 1.0070001 nan
-0.028352024 -0.027278945 1.01 nan
-0.02654211 -0.027359974 1.013 nan
-0.024647983 -0.027359974 1.013 nan
-0.022753857 -0.027359974 1.013 nan
-0.020859729 -0.027359974 1.013 nan
-0.01902177 -0.027441001 1.016 nan
-0.017122034 -0.027441001 1.016 nan
-0.015267245 -0.027522026 1.0190001 nan
-0.013361899 -0.027522026 1.0190001 nan
-0.011490283 -0.027603053 1.0220001 nan
-0.009579327 -0.027603053 1.0220001 nan
-0.0076683722 -0.027603053 1.0220001 nan
-0.0057574175 -0.027603053 1.0220001 nan
0.051419854 -0.027522026 1.0190001 nan
0.053325199 -0.027522026 1.0190001 nan
0.055230547 -0.027522026 1.0190001 nan
0.056967679 -0.027441001 1.016 nan
0.058867417 -0.027441001 1.016 nan
0.060767155 -0.027441001 1.016 nan
0.062481847 -0.027359974 1.013 nan
0.064375974 -0.027359974 1.013 nan
0.066270098 -0.027359974 1.013 nan
0.067962363 -0.027278945 1.01 nan
0.069643401 -0.027197918 1.0070001 nan
0.071313225 -0.027116893 1.0040001 nan
0.073190518 -0.027116893 1.0040001 nan
0.074843511 -0.027035866 1.001 nan
0.076715201 -0.027035866 1.001 nan
0.078351364 -0.026954839 0.99800003 nan
0.079976305 -0.026873814 0.99500006 nan
0.081590034 -0.026792787 0.99200004 nan
0.083192542 -0.02671176 0.98900002 nan
0.085041791 -0.02671176 0.98900002 nan
0.086715333 -0.026657742 0.98700005 nan
0.08802247 -0.02649569 0.98100007 nan
0.089581974 -0.026414663 0.97800004 nan
0.091130257 -0.026333636 0.97500002 nan
0.092762664 -0.026279617 0.97300005 nan
0.094290376 -0.026198592 0.97000003 nan
0.095014259 -0.025901493 0.95900005 nan
0.096504577 -0.025820468 0.95600003 nan
0.097778045 -0.025685424 0.95100003 nan
0.099556237 -0.025685424 0.95100003 nan
0.10133444 -0.025685424 0.95100003 nan
0.10311264 -0.025685424 0.95100003 nan
-0.057882912 -0.024312166 0.96700007 -1.9008482e+38
-0.056074798 -0.024312166 0.96700007 -1.754581e+38
-0.054266684 -0.024312166 0.96700007 -1.7811657e+38
-0.052621316 -0.024387592 0.97000003 -1.7811657e+38
-0.050964728 -0.024463017 0.97300005 -2.233103e+38
-0.049246412 -0.024513301 0.97500002 -3.3506447e+38
-0.047569253 -0.024588726 0.97800004 nan
-0.04602119 -0.024739578 0.98400003 nan
-0.044405788 -0.024865286 0.98900002 nan
-0.042685628 -0.024940712 0.99200004 nan
-0.040954243 -0.025016138 0.99500006 nan
-0.039093774 -0.025016138 0.99500006 nan
-0.037345566 -0.025091562 0.99800003 nan
-0.035586137 -0.025166988 1.001 nan
-0.033714451 -0.025166988 1.001 nan
-0.031938192 -0.025242414 1.0040001 nan
-0.030150717 -0.02531784 1.0070001 nan
-0.028352024 -0.025393266 1.01 nan
-0.026463507 -0.025393266 1.01 nan
