# .PCD v0.7 - Point Cloud Data file format
VERSION 0.7
FIELDS x y z rgb
SIZE 4 4 4 4
TYPE F F F F
COUNT 1 1 1 1
WIDTH 977
HEIGHT 1
VIEWPOINT 0 0 0 1 0 0 0
POINTS 977
DATA ascii
-0.12585954 0.020590607 0.62900001 -1.7811655e+38
-0.12468342 0.020590607 0.62900001 -1.7944578e+38
-0.12350731 0.020590607 0.62900001 -1.7944578e+38
-0.12252568 0.020623343 0.63000005 -1.7944578e+38
-0.1213477 0.020623343 0.63000005 -1.7944578e+38
-0.12016971 0.020623343 0.63000005 -1.7944578e+38
-0.1191806 0.020656077 0.63100004 -1.7944578e+38
-0.11800075 0.020656077 0.63100004 -1.7944578e+38
-0.11682089 0.020656077 0.63100004 -1.8742115e+38
-0.11564103 0.020656077 0.63100004 -1.9273806e+38
-0.11446118 0.020656077 0.63100004 -1.9406729e+38
-0.11346085 0.020688813 0.63200003 -1.9539652e+38
-0.11227912 0.020688813 0.63200003 -1.8476269e+38
-0.1110974 0.020688813 0.63200003 -1.7944578e+38
-0.10991567 0.020688813 0.63200003 -1.7944578e+38
-0.10873395 0.020688813 0.63200003 -1.7944578e+38
-0.10755222 0.020688813 0.63200003 -1.9140883e+38
-0.10637049 0.020688813 0.63200003 -1.9539652e+38
-0.10518877 0.020688813 0.63200003 -1.9539652e+38
-0.10384247 0.020656077 0.63100004 -1.9539652e+38
-0.10282532 0.020688813 0.63200003 -1.993842e+38
-0.10164359 0.020688813 0.63200003 -1.993842e+38
-0.10046187 0.020688813 0.63200003 -1.8875038e+38
-0.099123046 0.020656077 0.63100004 -1.8609192e+38
-0.097943194 0.020656077 0.63100004 -1.8210424e+38
-0.096763335 0.020656077 0.63100004 -1.8077501e+38
-0.095583484 0.020656077 0.63100004 -1.8077501e+38
-0.094254017 0.020623343 0.63000005 -1.8476269e+38
-0.093076035 0.020623343 0.63000005 -2.2729799e+38
-0.091752179 0.020590607 0.62900001 -2.5255863e+38
-0.090432063 0.020557871 0.62800002 -3.0450785e+38
-0.089115679 0.020525135 0.62700003 -3.1784696e+38
-0.087522522 0.020426929 0.62400001 -3.1919702e+38
-0.086217366 0.020394195 0.62300003 -3.1786258e+38
-0.085052468 0.020394195 0.62300003 -2.9652236e+38
-0.083752923 0.020361459 0.62200004 -2.8584685e+38
-0.082589895 0.020361459 0.62200004 -2.8583118e+38
-0.14409524 0.020830689 0.60200006 -2.206525e+38
-0.1432071 0.020865291 0.60300004 -2.0735993e+38
-0.14278647 0.020969098 0.60600001 -2.0204266e+38
-0.14258836 0.02110751 0.61000001 -2.0204268e+38
-0.14167966 0.02114211 0.611 -1.9805505e+38
-0.14122723 0.021245919 0.61400002 -1.9140885e+38
-0.14007917 0.021245919 0.61400002 -1.8210424e+38
-0.13915735 0.021280522 0.61500001 -1.8077501e+38
-0.13800742 0.021280522 0.61500001 -1.8210424e+38
-0.13708001 0.021315126 0.61600006 -1.8343348e+38
-0.13636953 0.021384329 0.61800003 -1.8210424e+38
-0.13565157 0.021453533 0.62 -1.8077501e+38
-0.13492614 0.021522738 0.62200004 -1.7944578e+38
-0.1337631 0.021522738 0.62200004 -1.7811655e+38
-0.13281326 0.021557342 0.62300003 -1.7811655e+38
-0.13164838 0.021557342 0.62300003 -1.8077501e+38
-0.13069291 0.021591945 0.62400001 -1.7944578e+38
-0.12973373 0.021626545 0.625 -1.7811655e+38
-0.12897648 0.02169575 0.62700003 -1.7811655e+38
-0.12780412 0.02169575 0.62700003 -1.7678732e+38
-0.12683371 0.021730354 0.62800002 -1.754581e+38
-0.12585954 0.021764956 0.62900001 -1.7811655e+38
-0.12488165 0.021799559 0.63000005 -1.7811655e+38
-0.12370367 0.021799559 0.63000005 -1.7944578e+38
-0.12252568 0.021799559 0.63000005 -1.7944578e+38
-0.12154031 0.021834161 0.63100004 -1.7811655e+38
-0.12036046 0.021834161 0.63100004 -1.7944578e+38
-0.1191806 0.021834161 0.63100004 -1.7944578e+38
-0.11818776 0.021868763 0.63200003 -1.7944578e+38
-0.11700603 0.021868763 0.63200003 -1.8077501e+38
-0.1158243 0.021868763 0.63200003 -1.8210424e+38
-0.11464258 0.021868763 0.63200003 -1.900796e+38
-0.11346085 0.021868763 0.63200003 -1.9539652e+38
-0.11263444 0.021937968 0.634 -1.9140883e+38
-0.1110974 0.021868763 0.63200003 -1.8609192e+38
-0.1102635 0.021937968 0.634 -1.7811655e+38
-0.10907804 0.021937968 0.634 -1.754581e+38
-0.10755222 0.021868763 0.63200003 -1.7944578e+38
-0.10670711 0.021937968 0.634 -1.7811655e+38
-0.10552164 0.021937968 0.634 -1.8077501e+38
-0.10433618 0.021937968 0.634 -1.8476269e+38
-0.10315071 0.021937968 0.634 -1.9539652e+38
-0.10164359 0.021868763 0.63200003 -2.0071343e+38
-0.10046187 0.021868763 0.63200003 -2.1134729e+38
-0.099280141 0.021868763 0.63200003 -2.2198124e+38
-0.09809842 0.021868763 0.63200003 -2.4860202e+38
-0.096763335 0.021834161 0.63100004 -2.5792735e+38
-0.095583484 0.021834161 0.63100004 -2.7263716e+38
-0.094403625 0.021834161 0.63100004 -2.8197821e+38
-0.093076035 0.021799559 0.63000005 -2.8596139e+38
-0.091752179 0.021764956 0.62900001 -2.8327182e+38
-0.09057606 0.021764956 0.62900001 -2.9515149e+38
-0.089115679 0.02169575 0.62700003 -2.9513585e+38
-0.087662786 0.021626545 0.625 -2.9779952e+38
-0.14522088 0.02195463 0.60200006 -2.7650603e+38
-0.14409524 0.02195463 0.60200006 -2.4590765e+38
-0.14296961 0.02195463 0.60200006 -2.219812e+38
-0.14349334 0.022209914 0.60900003 -2.0735957e+38
-0.14282212 0.022282854 0.611 -1.993842e+38
-0.14191154 0.022319324 0.61200005 -1.8742117e+38
-0.14122723 0.022392264 0.61400002 -1.8077501e+38
-0.14007917 0.022392264 0.61400002 -1.7412887e+38
-0.13915735 0.022428732 0.61500001 -1.754581e+38
-0.13800742 0.022428732 0.61500001 -1.7944578e+38
-0.13752508 0.02253814 0.61800003 -1.8609192e+38
-0.1365902 0.022574611 0.61900002 -1.9140883e+38
-0.13587037 0.02264755 0.62100005 -1.8476269e+38
-0.13492614 0.022684019 0.62200004 -1.7811655e+38
-0.13397816 0.02272049 0.62300003 -1.7811655e+38
-0.13281326 0.02272049 0.62300003 -1.7678732e+38
-0.13164838 0.02272049 0.62300003 -1.7811655e+38
-0.13069291 0.022756958 0.62400001 -1.7944578e+38
-0.12973373 0.022793427 0.625 -1.7811655e+38
-0.12897648 0.022866366 0.62700003 -1.7678732e+38
-0.12800795 0.022902837 0.62800002 -1.7678732e+38
-0.12723763 0.022975776 0.63000005 -1.7811655e+38
-0.12605964 0.022975776 0.63000005 -1.7811655e+38
-0.12507989 0.023012245 0.63100004 -1.7811655e+38
-0.12390003 0.023012245 0.63100004 -1.7811655e+38
-0.12272017 0.023012245 0.63100004 -1.7678732e+38
-0.12154031 0.023012245 0.63100004 -1.7811655e+38
-0.12036046 0.023012245 0.63100004 -1.7811655e+38
-0.1191806 0.023012245 0.63100004 -1.7811655e+38
-0.11800075 0.023012245 0.63100004 -1.7811655e+38
-0.11700603 0.023048714 0.63200003 -1.7811655e+38
-0.11619083 0.023121653 0.634 -1.7678732e+38
-0.11500537 0.023121653 0.634 -1.8609192e+38
-0.11346085 0.023048714 0.63200003 -1.9273806e+38
-0.11263444 0.023121653 0.634 -1.8875038e+38
-0.11144897 0.023121653 0.634 -1.8210424e+38
-0.1102635 0.023121653 0.634 -1.7279964e+38
-0.10925009 0.023158122 0.63500005 -1.7147041e+38
-0.10789257 0.023121653 0.634 -1.7147041e+38
-0.10670711 0.023121653 0.634 -1.7147041e+38
-0.10552164 0.023121653 0.634 -1.754581e+38
-0.10450075 0.023158122 0.63500005 -1.8077501e+38
-0.10315071 0.023121653 0.634 -1.993842e+38
-0.10196525 0.023121653 0.634 -2.1001802e+38
-0.10077978 0.023121653 0.634 -2.5122446e+38
-0.099594317 0.023121653 0.634 -2.6850984e+38
-0.09809842 0.023048714 0.63200003 -2.977892e+38
-0.09691669 0.023048714 0.63200003 -3.0578536e+38
-0.095583484 0.023012245 0.63100004 -3.1785753e+38
-0.094403625 0.023012245 0.63100004 -3.2053679e+38
-0.093076035 0.022975776 0.63000005 -3.0591042e+38
-0.091752179 0.022939306 0.62900001 -2.9257646e+38
-0.09057606 0.022939306 0.62900001 -2.7651613e+38
-0.089115679 0.022866366 0.62700003 -2.6850947e+38
-0.13600892 0.021123407 0.551 -2.764905e+38
-0.13497865 0.021123407 0.551 -2.7515608e+38
-0.14529204 0.023270253 0.60700005 -2.7660434e+38
-0.14415707 0.023270253 0.60700005 -2.8062334e+38
-0.14349334 0.023346923 0.60900003 -2.7129806e+38
-0.14235462 0.023346923 0.60900003 -2.5394508e+38
-0.14214341 0.023500271 0.61300004 -2.5260005e+38
-0.14122723 0.023538608 0.61400002 -2.3794232e+38
-0.14030729 0.023576943 0.61500001 -2.1799374e+38
-0.13983618 0.023691952 0.61800003 -2.0735973e+38
-0.13890503 0.023730291 0.61900002 -1.9805497e+38
-0.13774762 0.023730291 0.61900002 -1.9273806e+38
-0.13681087 0.023768626 0.62 -1.8609192e+38
-0.13587037 0.023806963 0.62100005 -1.7678732e+38
-0.13514306 0.023883637 0.62300003 -1.7147041e+38
-0.13397816 0.023883637 0.62300003 -1.7147041e+38
-0.13302644 0.023921972 0.62400001 -1.7147041e+38
-0.13164838 0.023883637 0.62300003 -1.7147041e+38
-0.13069291 0.023921972 0.62400001 -1.7147041e+38
-0.12973373 0.023960307 0.625 -1.7147041e+38
-0.12897648 0.024036981 0.62700003 -1.7147041e+38
-0.12800795 0.024075318 0.62800002 -1.7147045e+38
-0.12723763 0.024151992 0.63000005 -1.7147047e+38
-0.12625974 0.024190327 0.63100004 -1.7147047e+38
-0.12507989 0.024190327 0.63100004 -1.7147045e+38
-0.12390003 0.024190327 0.63100004 -1.7147043e+38
-0.12272017 0.024190327 0.63100004 -1.7147041e+38
-0.12173293 0.024228664 0.63200003 -1.7147041e+38
-0.12055121 0.024228664 0.63200003 -1.7147041e+38
-0.11936948 0.024228664 0.63200003 -1.7147041e+38
-0.11818776 0.024228664 0.63200003 -1.7147041e+38
-0.1173763 0.024305336 0.634 -1.7678732e+38
-0.11619083 0.024305336 0.634 -1.7944578e+38
-0.11500537 0.024305336 0.634 -1.8609192e+38
-0.1138199 0.024305336 0.634 -1.9140883e+38
-0.11281209 0.024343675 0.63500005 -1.9672574e+38
-0.11162476 0.024343675 0.63500005 -2.0204266e+38
-0.11043743 0.024343675 0.63500005 -2.1134725e+38
-0.10925009 0.024343675 0.63500005 -2.1932262e+38
-0.10806276 0.024343675 0.63500005 -2.4464026e+38
-0.10687542 0.024343675 0.63500005 -2.5664485e+38
-0.10568809 0.024343675 0.63500005 -2.645842e+38
-0.10450075 0.024343675 0.63500005 -2.6989608e+38
-0.10331342 0.024343675 0.63500005 -2.765941e+38
-0.10212608 0.024343675 0.63500005 -2.8994366e+38
-0.10093874 0.024343675 0.63500005 -2.9125786e+38
-0.099594317 0.024305336 0.634 -2.8324616e+38
-0.098408848 0.024305336 0.634 -2.8581067e+38
-0.09691669 0.024228664 0.63200003 -2.8712424e+38
-0.095734969 0.024228664 0.63200003 -2.8980336e+38
-0.094403625 0.024190327 0.63100004 -2.8980854e+38
-0.093223773 0.024190327 0.63100004 -2.8449173e+38
-0.092043914 0.024190327 0.63100004 -2.8182806e+38
-0.13985708 0.022272741 0.55400002 -3.3287578e+38
-0.13857062 0.022232538 0.55300003 -2.9278524e+38
-0.13703918 0.022152131 0.551 -2.4871739e+38
-0.13600892 0.022152131 0.551 -2.7658406e+38
-0.13497865 0.022152131 0.551 -2.712307e+38
-0.13394839 0.022152131 0.551 -2.7251839e+38
-0.1329181 0.022152131 0.551 -2.7919572e+38
-0.14349334 0.024483934 0.60900003 -3.0320529e+38
-0.14235462 0.024483934 0.60900003 -3.0054152e+38
-0.14214341 0.024644747 0.61300004 -2.9255025e+38
-0.14122723 0.024684953 0.61400002 -2.778871e+38
-0.14030729 0.024725154 0.61500001 -2.6191564e+38
-0.13983618 0.024845764 0.61800003 -2.4859214e+38
-0.13890503 0.024885969 0.61900002 -2.286277e+38
-0.13819268 0.024966376 0.62100005 -2.0868896e+38
-0.13725218 0.025006579 0.62200004 -1.9805497e+38
-0.13608916 0.025006579 0.62200004 -1.8609192e+38
-0.13514306 0.025046784 0.62300003 -1.7279964e+38
-0.13419321 0.025086986 0.62400001 -1.7147041e+38
-0.13302644 0.025086986 0.62400001 -1.7014118e+38
-0.13185968 0.025086986 0.62400001 -1.7014118e+38
-0.13132124 0.025207596 0.62700003 -1.7014118e+38
-0.13014886 0.025207596 0.62700003 -1.7014118e+38
-0.12918219 0.025247801 0.62800002 -1.7014118e+38
-0.12821178 0.025288004 0.62900001 -1.7014118e+38
-0.12723763 0.025328208 0.63000005 -1.701412e+38
-0.12625974 0.025368411 0.63100004 -1.701412e+38
-0.12507989 0.025368411 0.63100004 -1.7014118e+38
-0.12390003 0.025368411 0.63100004 -1.7014118e+38
-0.12272017 0.025368411 0.63100004 -1.7014118e+38
-0.12173293 0.025408614 0.63200003 -1.7014118e+38
-0.12055121 0.025408614 0.63200003 -1.7014118e+38
-0.11974723 0.025489021 0.634 -1.7014118e+38
-0.11874877 0.025529226 0.63500005 -1.7014118e+38
-0.11756144 0.025529226 0.63500005 -1.7678732e+38
-0.11637411 0.025529226 0.63500005 -1.8343346e+38
-0.11518677 0.025529226 0.63500005 -1.993842e+38
-0.11399943 0.025529226 0.63500005 -2.1134725e+38
-0.11298975 0.025569428 0.63600004 -2.3394413e+38
-0.11180054 0.025569428 0.63600004 -2.5389309e+38
-0.11061134 0.025569428 0.63600004 -2.6855657e+38
-0.10942214 0.025569428 0.63600004 -2.7255995e+38
-0.10823293 0.025569428 0.63600004 -2.9120528e+38
-0.10704373 0.025569428 0.63600004 -3.0186505e+38
-0.10585452 0.025569428 0.63600004 -3.1248879e+38
-0.10466532 0.025569428 0.63600004 -3.1781104e+38
-0.10347611 0.025569428 0.63600004 -3.1653355e+38
-0.10228691 0.025569428 0.63600004 -3.1521984e+38
-0.1010977 0.025569428 0.63600004 -3.0056758e+38
-0.099751413 0.025529226 0.63500005 -2.8989739e+38
-0.098564073 0.025529226 0.63500005 -2.6985446e+38
-0.097223386 0.025489021 0.634 -2.6451663e+38
-0.095734969 0.025408614 0.63200003 -2.6717513e+38
-0.09455324 0.025408614 0.63200003 -2.6717515e+38
-0.093223773 0.025368411 0.63100004 -2.7118908e+38
-0.092043914 0.025368411 0.63100004 -2.7252875e+38
-0.13985708 0.023307065 0.55400002 nan
-0.13857062 0.023264995 0.55300003 -2.9148753e+38
-0.13703918 0.023180854 0.551 -2.6878109e+38
-0.13600892 0.023180854 0.551 -2.8202078e+38
-0.13497865 0.023180854 0.551 -2.8333958e+38
-0.13394839 0.023180854 0.551 -2.7796521e+38
-0.1329181 0.023180854 0.551 -2.6861374e+38
-0.14349334 0.025620943 0.60900003 -2.7383717e+38
-0.14258836 0.025663015 0.61000001 -2.7649559e+38
-0.14214341 0.025789225 0.61300004 -2.8181234e+38
-0.14122723 0.025831297 0.61400002 -2.7915914e+38
-0.14030729 0.025873367 0.61500001 -2.75208e+38
-0.13938364 0.025915438 0.61600006 -2.8324596e+38
-0.13868062 0.025999578 0.61800003 -2.6997463e+38
-0.13819268 0.026125791 0.62100005 -2.6864003e+38
-0.13725218 0.02616786 0.62200004 -2.6863459e+38
-0.13630795 0.026209932 0.62300003 -2.6597094e+38
-0.13535997 0.026252002 0.62400001 -2.606488e+38
-0.13440827 0.026294071 0.625 -2.6063831e+38
-0.13323963 0.026294071 0.625 -2.646207e+38
-0.13249362 0.026378212 0.62700003 -2.646207e+38
-0.13153069 0.026420284 0.62800002 -2.6062781e+38
-0.13035645 0.026420284 0.62800002 -2.606434e+38
-0.1295936 0.026504425 0.63000005 -2.5799533e+38
-0.12841561 0.026504425 0.63000005 -2.5665546e+38
-0.1274396 0.026546495 0.63100004 -2.5931369e+38
-0.12645982 0.026588565 0.63200003 -2.5931369e+38
-0.1252781 0.026588565 0.63200003 -2.6198253e+38
-0.12409638 0.026588565 0.63200003 -2.6465176e+38
-0.12291465 0.026588565 0.63200003 -2.633176e+38
-0.12173293 0.026588565 0.63200003 -2.6331233e+38
-0.12055121 0.026588565 0.63200003 -2.6464673e+38
-0.11874877 0.026714778 0.63500005 -2.6996887e+38
-0.11756144 0.026714778 0.63500005 -2.6997919e+38
-0.11637411 0.026714778 0.63500005 -2.7264799e+38
-0.11518677 0.026714778 0.63500005 -2.7665643e+38
-0.11417896 0.026756847 0.63600004 -2.873371e+38
-0.11281209 0.026714778 0.63500005 -2.8998499e+38
-0.11180054 0.026756847 0.63600004 -2.926486e+38
-0.11061134 0.026756847 0.63600004 -2.8590452e+38
-0.10942214 0.026756847 0.63600004 -2.7519814e+38
-0.10806276 0.026714778 0.63500005 -2.7915936e+38
-0.10704373 0.026756847 0.63600004 -2.7782991e+38
-0.10585452 0.026756847 0.63600004 -2.8314682e+38
-0.10482989 0.026798919 0.63700002 -2.8713974e+38
-0.10347611 0.026756847 0.63600004 -2.8714982e+38
-0.10228691 0.026756847 0.63600004 -2.8847894e+38
-0.1010977 0.026756847 0.63600004 -2.8315205e+38
-0.099751413 0.026714778 0.63500005 -2.8181771e+38
-0.098564073 0.026714778 0.63500005 -2.6718556e+38
-0.097223386 0.026672706 0.634 -2.6719075e+38
-0.096037917 0.026672706 0.634 -2.6720105e+38
-0.072908469 0.023769841 0.565 -2.9118952e+38
-0.13985708 0.024341388 0.55400002 nan
-0.13832004 0.024253514 0.55200005 -3.167997e+38
-0.1372879 0.024253514 0.55200005 -2.794353e+38
-0.13600892 0.024209576 0.551 -2.8738957e+38
-0.13497865 0.024209576 0.551 -2.8205185e+38
-0.13370527 0.02416564 0.55000001 -2.8068113e+38
-0.13267687 0.02416564 0.55000001 -2.7133479e+38
-0.13164847 0.02416564 0.55000001 -2.7130337e+38
-0.14305586 0.026889766 0.61200005 -2.5654654e+38
-0.14237531 0.02697764 0.61400002 -2.631926e+38
-0.14145723 0.027021578 0.61500001 -2.6585627e+38
-0.14053544 0.027065516 0.61600006 -2.6851996e+38
-0.13983618 0.02715339 0.61800003 -2.7786642e+38
-0.13890503 0.027197327 0.61900002 -2.805616e+38
-0.13819268 0.027285203 0.62100005 -2.9123701e+38
-0.13725218 0.027329139 0.62200004 -3.0190192e+38
-0.13652675 0.027417015 0.62400001 -3.0856893e+38
-0.1355769 0.027460951 0.625 -3.1389631e+38
-0.13440827 0.027460951 0.625 -3.1389617e+38
-0.13366599 0.027548827 0.62700003 -3.085582e+38
-0.13249362 0.027548827 0.62700003 -3.0187044e+38
-0.13153069 0.027592765 0.62800002 -3.0186012e+38
-0.13035645 0.027592765 0.62800002 -3.0053089e+38
-0.12979931 0.027724577 0.63100004 -3.0319456e+38
-0.12882328 0.027768515 0.63200003 -3.0186513e+38
-0.12764156 0.027768515 0.63200003 -3.005357e+38
-0.12686002 0.027856389 0.634 -3.005357e+38
-0.12587278 0.027900329 0.63500005 -3.0320458e+38
-0.1244891 0.027856389 0.634 -3.058633e+38
-0.12330363 0.027856389 0.634 -3.0584789e+38
-0.12211816 0.027856389 0.634 -3.0984589e+38
-0.12093269 0.027856389 0.634 -3.1385433e+38
-0.11974723 0.027856389 0.634 -3.1920264e+38
-0.11874877 0.027900329 0.63500005 -3.2321125e+38
-0.11756144 0.027900329 0.63500005 -3.1924417e+38
-0.11655737 0.027944265 0.63600004 -3.0859453e+38
-0.11536817 0.027944265 0.63600004 -3.0724968e+38
-0.11417896 0.027944265 0.63600004 -3.0858415e+38
-0.11298975 0.027944265 0.63600004 -2.8457464e+38
-0.11180054 0.027944265 0.63600004 -2.7255948e+38
-0.11061134 0.027944265 0.63600004 -2.7384762e+38
-0.10942214 0.027944265 0.63600004 -2.7249776e+38
-0.10823293 0.027944265 0.63600004 -2.6717525e+38
-0.10704373 0.027944265 0.63600004 -2.6318739e+38
-0.10585452 0.027944265 0.63600004 -2.6318745e+38
-0.10466532 0.027944265 0.63600004 -2.6052895e+38
-0.10347611 0.027944265 0.63600004 -2.6584566e+38
-0.10228691 0.027944265 0.63600004 -2.698333e+38
-0.1010977 0.027944265 0.63600004 -2.6850967e+38
-0.099908493 0.027944265 0.63600004 -2.6717531e+38
-0.098719291 0.027944265 0.63600004 -2.6719598e+38
-0.097530089 0.027944265 0.63600004 -2.6720117e+38
-0.07486596 0.024429264 0.55600005 -2.871761e+38
-0.075021364 0.024824701 0.565 -2.898345e+38
-0.073964916 0.024824701 0.565 -2.9383263e+38
-0.072908469 0.024824701 0.565 -2.9251877e+38
-0.071852021 0.024824701 0.565 -2.8451215e+38
-0.067985311 0.024956513 0.56800002 nan
-0.1372879 0.025284104 0.55200005 -2.7279977e+38
-0.13625577 0.025284104 0.55200005 -2.82057e+38
-0.13497865 0.025238298 0.551 -2.7670888e+38
-0.13370527 0.025192495 0.55000001 -2.8067593e+38
-0.13267687 0.025192495 0.55000001 -2.7666736e+38
-0.13164847 0.025192495 0.55000001 -2.7533276e+38
-0.1303826 0.025146689 0.54900002 -2.7265862e+38
-0.14237531 0.028123984 0.61400002 -2.6859273e+38
-0.14168726 0.028215595 0.61600006 -2.6591348e+38
-0.14099172 0.028307201 0.61800003 -2.6589276e+38
-0.13983618 0.028307201 0.61800003 -2.6454799e+38
-0.13890503 0.028353008 0.61900002 -2.6719618e+38
-0.13797015 0.02839881 0.62 -2.6852008e+38
-0.13703153 0.028444616 0.62100005 -2.7251273e+38
-0.13630795 0.028536225 0.62300003 -2.7251798e+38
-0.13535997 0.028582029 0.62400001 -2.7384733e+38
-0.13440827 0.028627833 0.625 -2.7517648e+38
-0.13366599 0.028719442 0.62700003 -2.8181733e+38
-0.13249362 0.028719442 0.62700003 -2.7782461e+38
-0.13153069 0.028765248 0.62800002 -2.7117864e+38
-0.130564 0.028811052 0.62900001 -2.7117857e+38
-0.12979931 0.028902661 0.63100004 -2.7383699e+38
-0.12882328 0.028948465 0.63200003 -2.7250776e+38
-0.12804548 0.029040074 0.634 -2.6852002e+38
-0.12706012 0.02908588 0.63500005 -2.6851998e+38
-0.12587278 0.02908588 0.63500005 -2.711836e+38
-0.12468544 0.02908588 0.63500005 -2.7517141e+38
-0.12369259 0.029131683 0.63600004 -2.791592e+38
-0.12250339 0.029131683 0.63600004 -2.7782987e+38
-0.12131418 0.029131683 0.63600004 -2.7783498e+38
-0.12012498 0.029131683 0.63600004 -2.8182789e+38
-0.11893578 0.029131683 0.63600004 -2.8183309e+38
-0.11756144 0.02908588 0.63500005 -2.805037e+38
-0.11637411 0.02908588 0.63500005 -2.7917435e+38
-0.11536817 0.029131683 0.63600004 -2.7385226e+38
-0.11417896 0.029131683 0.63600004 -2.6986458e+38
-0.11298975 0.029131683 0.63600004 -2.6187355e+38
-0.11180054 0.029131683 0.63600004 -2.6053392e+38
-0.11061134 0.029131683 0.63600004 -2.6451672e+38
-0.10942214 0.029131683 0.63600004 -2.6717529e+38
-0.10823293 0.029131683 0.63600004 -2.6451672e+38
-0.10721203 0.029177489 0.63700002 -2.6451666e+38
-0.10602096 0.029177489 0.63700002 -2.6451676e+38
-0.10482989 0.029177489 0.63700002 -2.6585124e+38
-0.10347611 0.029131683 0.63600004 -2.6719594e+38
-0.10244773 0.029177489 0.63700002 -2.6586669e+38
-0.1010977 0.029131683 0.63600004 -2.671961e+38
-0.099908493 0.029131683 0.63600004 -2.6719095e+38
-0.076945201 0.025467321 0.55600005 -2.8185933e+38
-0.075905576 0.025467321 0.55600005 -2.8450203e+38
-0.074731305 0.025421517 0.55500001 -2.8850012e+38
-0.075021364 0.025879562 0.565 -2.91169e+38
-0.073964916 0.025879562 0.565 -2.9250342e+38
-0.073037513 0.025925366 0.56600004 -2.9251877e+38
-0.072106369 0.025971171 0.56700003 -2.7916917e+38
-0.071296781 0.026062781 0.56900001 -2.831671e+38
-0.070232853 0.026062781 0.56900001 -2.8717036e+38
-0.069168925 0.026062781 0.56900001 -2.9918017e+38
-0.068104997 0.026062781 0.56900001 nan
-0.067041069 0.026062781 0.56900001 -3.3798338e+38
-0.13679047 0.026219349 0.55000001 -2.7812165e+38
-0.13551524 0.026171677 0.54900002 -2.8607554e+38
-0.13448872 0.026171677 0.54900002 -2.7671375e+38
-0.13346218 0.026171677 0.54900002 -2.7798624e+38
-0.13243565 0.026171677 0.54900002 -2.7131402e+38
-0.13140912 0.026171677 0.54900002 -2.7531203e+38
-0.13014509 0.026124006 0.54800004 -2.739828e+38
-0.14237531 0.029270329 0.61400002 -2.6594488e+38
-0.14145723 0.029317999 0.61500001 -2.6460525e+38
-0.14053544 0.029365672 0.61600006 -2.6459484e+38
-0.13983618 0.029461013 0.61800003 -2.6192079e+38
-0.13890503 0.029508686 0.61900002 -2.6057083e+38
-0.13774762 0.029508686 0.61900002 -2.5788623e+38
-0.1365902 0.029508686 0.61900002 -2.5919964e+38
-0.13543278 0.029508686 0.61900002 -2.5654125e+38
-0.13514306 0.029699372 0.62300003 -2.5388806e+38
-0.13440827 0.029794713 0.625 -2.5255875e+38
-0.13366599 0.029890059 0.62700003 -2.5123983e+38
-0.13270493 0.029937731 0.62800002 -2.4724706e+38
-0.13174012 0.029985402 0.62900001 -2.3926142e+38
-0.13077159 0.030033074 0.63000005 -2.419198e+38
-0.12979931 0.030080745 0.63100004 -2.4723665e+38
-0.12882328 0.030128416 0.63200003 -2.4457819e+38
-0.12764156 0.030128416 0.63200003 -2.3660277e+38
-0.12645982 0.030128416 0.63200003 -2.392613e+38
-0.12567456 0.030223759 0.634 -2.4590754e+38
-0.12468544 0.030271431 0.63500005 -2.48566e+38
-0.12369259 0.030319102 0.63600004 -2.4856596e+38
-0.12231078 0.030271431 0.63500005 -2.4856596e+38
-0.12112344 0.030271431 0.63500005 -2.4989519e+38
-0.11993611 0.030271431 0.63500005 -2.4856586e+38
-0.10154422 0.025885649 0.54300004 -2.4723653e+38
-0.10052891 0.025885649 0.54300004 -2.5122413e+38
-0.099513598 0.025885649 0.54300004 -2.552118e+38
-0.11536817 0.030319102 0.63600004 -2.5654108e+38
-0.11435848 0.030366775 0.63700002 -2.5919958e+38
-0.11316741 0.030366775 0.63700002 -2.5920473e+38
-0.11197633 0.030366775 0.63700002 -2.6053394e+38
-0.11061134 0.030319102 0.63600004 -2.6186862e+38
-0.10959418 0.030366775 0.63700002 -2.6052909e+38
-0.10840311 0.030366775 0.63700002 -2.6452191e+38
-0.10721203 0.030366775 0.63700002 -2.6852519e+38
-0.080064058 0.026505379 0.55600005 -2.7251277e+38
-0.079166561 0.026553052 0.55700004 -2.7117314e+38
-0.078125075 0.026553052 0.55700004 -2.8049345e+38
-0.077083588 0.026553052 0.55700004 -2.91169e+38
-0.076042093 0.026553052 0.55700004 -2.8451241e+38
-0.075000606 0.026553052 0.55700004 -2.8584685e+38
-0.075021364 0.026934423 0.565 -2.8982935e+38
-0.073964916 0.026934423 0.565 -2.9383269e+38
-0.073037513 0.026982095 0.56600004 -2.9383238e+38
-0.072233535 0.027077436 0.56800002 -2.8315688e+38
-0.071296781 0.027125109 0.56900001 -2.8713921e+38
-0.070232853 0.027125109 0.56900001 -2.8580998e+38
-0.069290496 0.02717278 0.57000005 -3.0186458e+38
-0.068104997 0.027125109 0.56900001 nan
-0.0671589 0.02717278 0.57000005 -3.3663863e+38
-0.066093102 0.02717278 0.57000005 nan
-0.13629305 0.027147127 0.54800004 -2.7946666e+38
-0.13502157 0.027097588 0.54700005 -2.8739951e+38
-0.13424374 0.027147127 0.54800004 -2.7670855e+38
-0.13321908 0.027147127 0.54800004 -2.7799687e+38
-0.13219441 0.027147127 0.54800004 -2.726538e+38
-0.13116975 0.027147127 0.54800004 -2.7398266e+38
-0.12990761 0.027097588 0.54700005 -2.6863976e+38
-0.12935606 0.027196666 0.54900002 -2.686139e+38
-0.14214727 0.030614827 0.61800003 -2.6461042e+38
-0.14099172 0.030614827 0.61800003 -2.6460515e+38
-0.13983618 0.030614827 0.61800003 -2.6193113e+38
-0.13890503 0.030664364 0.61900002 -2.6191049e+38
-0.13774762 0.030664364 0.61900002 -2.605812e+38
-0.13636953 0.030614827 0.61800003 -2.605811e+38
-0.13521399 0.030614827 0.61800003 -2.5924666e+38
-0.13622767 0.03111021 0.62800002 -2.5925187e+38
-0.13505343 0.03111021 0.62800002 -2.5792783e+38
-0.13387918 0.03111021 0.62800002 -2.5394013e+38
-0.13291624 0.031159753 0.62900001 -2.5393504e+38
-0.13174012 0.031159753 0.62900001 -2.5260076e+38
-0.13077159 0.03120929 0.63000005 -2.5258488e+38
-0.12979931 0.031258829 0.63100004 -2.5257419e+38
-0.12861945 0.031258829 0.63100004 -2.5257961e+38
-0.1274396 0.031258829 0.63100004 -2.4725768e+38
-0.12625974 0.031258829 0.63100004 -2.5257455e+38
-0.1252781 0.031308364 0.63200003 -2.5790704e+38
-0.1248818 0.03150652 0.63600004 -2.5790698e+38
-0.12369259 0.03150652 0.63600004 -2.5524323e+38
-0.12250339 0.03150652 0.63600004 -2.5389845e+38
-0.12131418 0.03150652 0.63600004 -2.538933e+38
-0.11993611 0.031456981 0.63500005 -2.5654648e+38
-0.10173123 0.026948974 0.54400003 -2.5920487e+38
-0.10071404 0.026948974 0.54400003 -2.6053929e+38
-0.099696867 0.026948974 0.54400003 -2.6186852e+38
-0.088833265 0.027048051 0.546 -2.6987008e+38
-0.08797317 0.027097588 0.54700005 -2.6987006e+38
-0.086950377 0.027097588 0.54700005 -2.712046e+38
-0.086241767 0.027196666 0.54900002 -2.6987539e+38
-0.081103675 0.027543435 0.55600005 -2.711989e+38
-0.080064058 0.027543435 0.55600005 -2.7118363e+38
-0.079308696 0.027642513 0.55800003 -2.7384212e+38
-0.078265332 0.027642513 0.55800003 -2.8048822e+38
-0.077360369 0.027692053 0.55900002 -2.8848965e+38
-0.076724701 0.027840668 0.56200004 -2.8450201e+38
-0.075808518 0.027890205 0.56300002 -2.8717089e+38
-0.075021364 0.027989283 0.565 -2.9251362e+38
-0.073964916 0.027989283 0.565 -2.9384808e+38
-0.073166557 0.028088361 0.56700003 -2.9251358e+38
-0.072233535 0.028137898 0.56800002 -2.8851026e+38
-0.071422085 0.028236976 0.57000005 -2.8982886e+38
-0.070356287 0.028236976 0.57000005 -2.8315672e+38
-0.069533616 0.028336052 0.57200003 -2.951769e+38
-0.068464078 0.028336052 0.57200003 -3.3921839e+38
-0.06739454 0.028336052 0.57200003 -3.3396456e+38
-0.066325001 0.028336052 0.57200003 nan
-0.065255471 0.028336052 0.57200003 nan
-0.13629305 0.02817025 0.54800004 -2.8613365e+38
-0.13502157 0.028118843 0.54700005 -2.9273742e+38
-0.13424374 0.02817025 0.54800004 -2.7938271e+38
-0.13321908 0.02817025 0.54800004 -2.8067076e+38
-0.13219441 0.02817025 0.54800004 -2.7265889e+38
-0.13116975 0.02817025 0.54800004 -2.7662562e+38
-0.12990761 0.028118843 0.54700005 -2.7129307e+38
-0.13029854 0.028427277 0.55300003 -2.6729498e+38
-0.12926452 0.028427277 0.55300003 -2.6462608e+38
-0.1284624 0.028478682 0.55400002 -2.6595011e+38
-0.13983618 0.031768639 0.61800003 -2.6060199e+38
-0.13868062 0.031768639 0.61800003 -2.5659875e+38
-0.12172528 0.028118843 0.54700005 -2.5526946e+38
-0.13592821 0.031665828 0.61600006 -2.5526938e+38
-0.1347764 0.031665828 0.61600006 -2.5525897e+38
-0.13505343 0.032282691 0.62800002 -2.6324994e+38
-0.13387918 0.032282691 0.62800002 -2.6059661e+38
-0.13291624 0.0323341 0.62900001 -2.5926229e+38
-0.13194957 0.032385506 0.63000005 -2.5526954e+38
-0.13077159 0.032385506 0.63000005 -2.5659341e+38
-0.12979931 0.032436911 0.63100004 -2.6058095e+38
-0.12861945 0.032436911 0.63100004 -2.6191032e+38
-0.1274396 0.032436911 0.63100004 -2.6057085e+38
-0.12625974 0.032436911 0.63100004 -2.6189483e+38
-0.1252781 0.032488316 0.63200003 -2.6454805e+38
-0.12468544 0.032642532 0.63500005 -2.6454803e+38
-0.1234981 0.032642532 0.63500005 -2.6188434e+38
-0.12231078 0.032642532 0.63500005 -2.605395e+38
-0.12112344 0.032642532 0.63500005 -2.6053431e+38
-0.10312616 0.028067438 0.546 -2.6054461e+38
-0.10210524 0.028067438 0.546 -2.6187897e+38
-0.10071404 0.027964627 0.54400003 -2.6320311e+38
-0.1000634 0.028067438 0.546 -2.6320319e+38
-0.099042475 0.028067438 0.546 -2.6320828e+38
-0.091207981 0.02817025 0.54800004 -2.6853054e+38
-0.090347894 0.028221654 0.54900002 -2.6853058e+38
-0.089484058 0.028273061 0.55000001 -2.6720121e+38
-0.088455655 0.028273061 0.55000001 -2.6853561e+38
-0.087586217 0.028324466 0.551 -2.7118383e+38
-0.086713038 0.028375873 0.55200005 -2.7251308e+38
-0.082291029 0.0286329 0.55700004 -2.7386279e+38
-0.081249543 0.0286329 0.55700004 -2.7119391e+38
-0.080208056 0.0286329 0.55700004 -2.7386283e+38
-0.079308696 0.028684305 0.55800003 -2.725232e+38
-0.078405596 0.028735712 0.55900002 -2.8182266e+38
-0.077498756 0.028787116 0.56 -2.8715523e+38
-0.076588176 0.028838521 0.56100005 -2.8450201e+38
-0.075808518 0.028941331 0.56300002 -2.9117421e+38
-0.074888587 0.028992739 0.56400001 -2.8986573e+38
-0.073964916 0.029044144 0.565 -2.9119498e+38
-0.073295593 0.02919836 0.56800002 -2.9385344e+38
-0.072360709 0.029249767 0.56900001 -2.8718123e+38
-0.071547389 0.029352577 0.57100004 -2.8715479e+38
-0.070479721 0.029352577 0.57100004 -2.8047749e+38
-0.069533616 0.029403983 0.57200003 -2.8846846e+38
-0.068464078 0.029403983 0.57200003 nan
-0.067512371 0.02945539 0.57300001 -3.2863197e+38
-0.066440962 0.02945539 0.57300001 nan
-0.13662249 0.029939188 0.56200004 -2.7801216e+38
-0.13557164 0.029939188 0.56200004 -2.7399844e+38
-0.13428146 0.029885914 0.56100005 -2.7397248e+38
-0.13228251 0.029672824 0.55700004 -2.6997431e+38
-0.13124102 0.029672824 0.55700004 -2.6863461e+38
-0.12949829 0.029513005 0.55400002 -2.6728977e+38
-0.1284624 0.029513005 0.55400002 -2.6595011e+38
-0.12719651 0.029459734 0.55300003 -2.6594492e+38
-0.12570621 0.029353188 0.551 -2.6593971e+38
-0.12467594 0.029353188 0.551 -2.6327604e+38
-0.12274808 0.029140098 0.54700005 -2.579487e+38
-0.12172528 0.029140098 0.54700005 -2.5659863e+38
-0.12048183 0.029086826 0.546 -2.605759e+38
-0.1194609 0.029086826 0.546 -2.6191035e+38
-0.11843998 0.029086826 0.546 -2.6191035e+38
-0.11720401 0.029033553 0.54500002 -2.6058627e+38
-0.13077159 0.033561721 0.63000005 -2.5924142e+38
-0.1295936 0.033561721 0.63000005 -2.632188e+38
-0.12841561 0.033561721 0.63000005 -2.6456381e+38
-0.11027261 0.029086826 0.546 -2.6323992e+38
-0.10925169 0.029086826 0.546 -2.6322416e+38
-0.10823077 0.029086826 0.546 -2.6454805e+38
-0.10701349 0.029033553 0.54500002 -2.6455316e+38
-0.10599444 0.029033553 0.54500002 -2.6455829e+38
-0.10516801 0.029086826 0.546 -2.6321874e+38
-0.10414708 0.029086826 0.546 -2.6321361e+38
-0.10312616 0.029086826 0.546 -2.6321359e+38
-0.10210524 0.029086826 0.546 -2.6321359e+38
-0.10108432 0.029086826 0.546 -2.645429e+38
-0.1000634 0.029086826 0.546 -2.6320852e+38
-0.093597658 0.029299917 0.55000001 -2.6720107e+38
-0.092400953 0.029246643 0.54900002 -2.6720622e+38
-0.091540858 0.029299917 0.55000001 -2.6720115e+38
-0.090512462 0.029299917 0.55000001 -2.6720119e+38
-0.089646757 0.029353188 0.551 -2.6853561e+38
-0.088616483 0.029353188 0.551 -2.6853561e+38
-0.087586217 0.029353188 0.551 -2.7118373e+38
-0.086713038 0.029406462 0.55200005 -2.7251297e+38
-0.085836112 0.029459734 0.55300003 -2.7119379e+38
-0.084955454 0.029513005 0.55400002 -2.7386774e+38
-0.084071048 0.029566279 0.55500001 -2.7252835e+38
-0.083182916 0.02961955 0.55600005 -2.7252839e+38
-0.082291029 0.029672824 0.55700004 -2.751922e+38
-0.081249543 0.029672824 0.55700004 -2.751922e+38
-0.080208056 0.029672824 0.55700004 -2.7520246e+38
-0.079308696 0.029726095 0.55800003 -2.7519727e+38
-0.078405596 0.029779369 0.55900002 -2.8182266e+38
-0.077637151 0.029885914 0.56100005 -2.8448633e+38
-0.076724701 0.029939188 0.56200004 -2.8183309e+38
-0.075943165 0.030045733 0.56400001 -2.8983971e+38
-0.075021364 0.030099005 0.565 -2.9250865e+38
-0.073964916 0.030099005 0.565 -2.9251386e+38
-0.073295593 0.030258821 0.56800002 -2.9384309e+38
-0.072360709 0.030312095 0.56900001 -2.8984496e+38
-0.071547389 0.03041864 0.57100004 -2.898186e+38
-0.070479721 0.03041864 0.57100004 -2.8314641e+38
-0.069533616 0.030471912 0.57200003 -2.911373e+38
-0.068583772 0.030525185 0.57300001 nan
-0.067512371 0.030525185 0.57300001 -3.2996122e+38
-0.066440962 0.030525185 0.57300001 nan
-0.13557164 0.030988447 0.56200004 -2.7400357e+38
-0.13428146 0.030933307 0.56100005 -2.7530696e+38
-0.13299499 0.030878166 0.56 -2.739725e+38
-0.13124102 0.03071275 0.55700004 -2.7129321e+38
-0.12949829 0.030547328 0.55400002 -2.6728987e+38
-0.1284624 0.030547328 0.55400002 -2.6461567e+38
-0.12673649 0.030381911 0.551 -2.6461567e+38
-0.12570621 0.030381911 0.551 -2.6461567e+38
-0.12444967 0.030326772 0.55000001 -2.6327604e+38
-0.12297247 0.030216493 0.54800004 -2.6327083e+38
-0.12194781 0.030216493 0.54800004 -2.6192592e+38
-0.12070248 0.030161353 0.54700005 -2.6191544e+38
-0.1196797 0.030161353 0.54700005 -2.6058621e+38
-0.1186569 0.030161353 0.54700005 -2.5926217e+38
-0.11741906 0.030106213 0.546 -2.6058625e+38
-0.11639814 0.030106213 0.546 -2.6191554e+38
-0.11453196 0.029885655 0.54200006 -2.6191554e+38
-0.11351852 0.029885655 0.54200006 -2.5925187e+38
-0.11250508 0.029885655 0.54200006 -2.6057065e+38
-0.11149164 0.029885655 0.54200006 -2.6856162e+38
-0.11129353 0.030106213 0.546 -2.7524437e+38
-0.11027261 0.030106213 0.546 -2.6591904e+38
-0.10925169 0.030106213 0.546 -2.6189477e+38
-0.10701349 0.030051073 0.54500002 -2.6588239e+38
-0.10599444 0.030051073 0.54500002 -2.6454803e+38
-0.10414708 0.030106213 0.546 -2.6455324e+38
-0.10312616 0.030106213 0.546 -2.6455836e+38
-0.10210524 0.030106213 0.546 -2.6455829e+38
-0.10108432 0.030106213 0.546 -2.645532e+38
-0.1000634 0.030106213 0.546 -2.6321363e+38
-0.093767837 0.030381911 0.551 -2.6984904e+38
-0.092569262 0.030326772 0.55000001 -2.7117825e+38
-0.091540858 0.030326772 0.55000001 -2.7117833e+38
-0.090677023 0.030381911 0.551 -2.7117316e+38
-0.089646757 0.030381911 0.551 -2.7118874e+38
-0.088616483 0.030381911 0.551 -2.7118872e+38
-0.087904133 0.03049219 0.55300003 -2.7118365e+38
-0.087027214 0.030547328 0.55400002 -2.7117847e+38
-0.08599133 0.030547328 0.55400002 -2.7118354e+38
-0.084955454 0.030547328 0.55400002 -2.6984904e+38
-0.084071048 0.030602468 0.55500001 -2.7781932e+38
-0.083182916 0.03065761 0.55600005 -2.8048301e+38
-0.082291029 0.03071275 0.55700004 -2.7518202e+38
-0.081249543 0.03071275 0.55700004 -2.7518206e+38
-0.080208056 0.03071275 0.55700004 -2.7519224e+38
-0.079308696 0.030767888 0.55800003 -2.7519222e+38
-0.078826375 0.030988447 0.56200004 -2.7652652e+38
-0.077775538 0.030988447 0.56200004 -2.7518687e+38
-0.076861225 0.031043585 0.56300002 -2.8185353e+38
-0.075943165 0.031098723 0.56400001 -2.8986015e+38
-0.075021364 0.031153867 0.565 -2.9118437e+38
-0.073964916 0.031153867 0.565 -2.9651175e+38
-0.073424637 0.031374421 0.56900001 -2.9250356e+38
-0.072615057 0.031484704 0.57100004 -2.871658e+38
-0.071672685 0.031539842 0.57200003 -2.8850482e+38
-0.070603147 0.031539842 0.57200003 -2.8049828e+38
-0.06965518 0.031594981 0.57300001 -2.911373e+38
-0.068703465 0.031650122 0.574 nan
-0.067630187 0.031650122 0.574 -3.3131125e+38
-0.066556916 0.031650122 0.574 nan
-0.1371087 0.032151718 0.56400001 -2.8201536e+38
-0.13581288 0.032094713 0.56300002 -2.7800168e+38
-0.13452081 0.032037705 0.56200004 -2.766414e+38
-0.13323249 0.031980701 0.56100005 -2.7397767e+38
-0.13124102 0.031752672 0.55700004 -2.6998455e+38
-0.12949829 0.031581651 0.55400002 -2.6730009e+38
-0.1284624 0.031581651 0.55400002 -2.6461567e+38
-0.12742652 0.031581651 0.55400002 -2.6461046e+38
-0.12570621 0.031410635 0.551 -2.659345e+38
-0.12467594 0.031410635 0.551 -2.6460002e+38
-0.12342127 0.031353626 0.55000001 -2.6327069e+38
-0.12217034 0.031296618 0.54900002 -2.5927244e+38
-0.12114381 0.031296618 0.54900002 -2.6059623e+38
-0.12011728 0.031296618 0.54900002 -2.6060154e+38
-0.11909075 0.031296618 0.54900002 -2.5926215e+38
-0.11784916 0.031239614 0.54800004 -2.6058629e+38
-0.1168245 0.031239614 0.54800004 -2.6191568e+38
-0.11579984 0.031239614 0.54800004 -2.6191562e+38
-0.11498463 0.031296618 0.54900002 -2.5925189e+38
-0.11333538 0.0311256 0.546 -2.6190509e+38
-0.11231446 0.0311256 0.546 -2.6589272e+38
-0.11129353 0.0311256 0.546 -2.6989086e+38
-0.11027261 0.0311256 0.546 -2.6855125e+38
-0.10925169 0.0311256 0.546 -2.6455306e+38
-0.10823077 0.0311256 0.546 -2.6322892e+38
-0.10701349 0.031068593 0.54500002 -2.6322379e+38
-0.10599444 0.031068593 0.54500002 -2.6321866e+38
-0.10414708 0.0311256 0.546 -2.6322385e+38
-0.10312616 0.0311256 0.546 -2.6322385e+38
-0.10210524 0.0311256 0.546 -2.6322383e+38
-0.10108432 0.0311256 0.546 -2.6322385e+38
-0.1000634 0.0311256 0.546 -2.6321866e+38
-0.099223875 0.031182608 0.54700005 -2.645426e+38
-0.098380603 0.031239614 0.54800004 -2.6720101e+38
-0.097178288 0.031182608 0.54700005 -2.6586148e+38
-0.094798103 0.031410635 0.551 -2.711833e+38
-0.093938015 0.031467643 0.55200005 -2.7117821e+38
-0.092737563 0.031410635 0.551 -2.7117306e+38
-0.091707297 0.031410635 0.551 -2.7117815e+38
-0.090677023 0.031410635 0.551 -2.7252293e+38
-0.089809455 0.031467643 0.55200005 -2.7118866e+38
-0.088777319 0.031467643 0.55200005 -2.7252314e+38
-0.088063091 0.031581651 0.55400002 -2.7118363e+38
-0.087027214 0.031581651 0.55400002 -2.7117847e+38
-0.086146548 0.03163866 0.55500001 -2.76485e+38
-0.085108802 0.03163866 0.55500001 -2.7780904e+38
-0.084222533 0.031695668 0.55600005 -2.7383172e+38
-0.083332524 0.031752672 0.55700004 -2.8051432e+38
-0.082291029 0.031752672 0.55700004 -2.8053037e+38
-0.081249543 0.031752672 0.55700004 -2.7385825e+38
-0.080352053 0.03180968 0.55800003 -2.8048844e+38
-0.079735085 0.031980701 0.56100005 -2.8448651e+38
-0.078826375 0.032037705 0.56200004 -2.8049343e+38
-0.077775538 0.032037705 0.56200004 -2.8182264e+38
-0.076724701 0.032037705 0.56200004 -2.8582558e+38
-0.075808518 0.032094713 0.56300002 -2.9249768e+38
-0.075154148 0.032265734 0.56600004 -2.9251875e+38
-0.074357651 0.032379746 0.56800002 -2.9251877e+38
-0.073811762 0.032607771 0.57200003 -2.9254007e+38
-0.072869398 0.032664776 0.57300001 -2.8319379e+38
-0.071923293 0.032721788 0.574 -2.8716517e+38
-0.070850015 0.032721788 0.574 -2.8449633e+38
-0.069776744 0.032721788 0.574 -2.8713923e+38
-0.068703465 0.032721788 0.574 -3.3651325e+38
-0.06774801 0.032778792 0.57500005 -3.2996653e+38
-0.066672862 0.032778792 0.57500005 nan
-0.13735178 0.033263586 0.565 -2.8603422e+38
-0.13581288 0.033145837 0.56300002 -2.7401391e+38
-0.13452081 0.033086967 0.56200004 -2.7928426e+38
-0.13323249 0.033028092 0.56100005 -2.7662053e+38
-0.13147666 0.032851472 0.55800003 -2.6996903e+38
-0.12973204 0.032674849 0.55500001 -2.6728979e+38
-0.1286943 0.032674849 0.55500001 -2.6594502e+38
-0.12742652 0.032615975 0.55400002 -2.6327091e+38
-0.1261625 0.032557104 0.55300003 -2.6327083e+38
-0.12490223 0.032498229 0.55200005 -2.6326562e+38
-0.12364568 0.032439359 0.551 -2.6327081e+38
-0.1226154 0.032439359 0.551 -2.6060183e+38
-0.12136447 0.03238048 0.55000001 -2.5793272e+38
-0.12033607 0.03238048 0.55000001 -2.5793278e+38
-0.11930767 0.03238048 0.55000001 -2.5926215e+38
-0.11827927 0.03238048 0.55000001 -2.5925702e+38
-0.11703769 0.03232161 0.54900002 -2.6058633e+38
-0.11601116 0.03232161 0.54900002 -2.6058633e+38
-0.11498463 0.03232161 0.54900002 -2.5925189e+38
-0.11333538 0.032144986 0.546 -2.6189988e+38
-0.11252016 0.032203864 0.54700005 -2.6588231e+38
-0.11129353 0.032144986 0.546 -2.6720113e+38
-0.11027261 0.032144986 0.546 -2.6585631e+38
-0.10945179 0.032203864 0.54700005 -2.6452187e+38
-0.10823077 0.032144986 0.546 -2.6452706e+38
-0.10720985 0.032144986 0.546 -2.6719075e+38
-0.10618893 0.032144986 0.546 -2.6852521e+38
-0.10574585 0.03232161 0.54900002 -2.6720645e+38
-0.10433783 0.032203864 0.54700005 -2.6321878e+38
-0.10331504 0.032203864 0.54700005 -2.6453753e+38
-0.10229225 0.032203864 0.54700005 -2.6719075e+38
-0.10126945 0.032203864 0.54700005 -2.6587191e+38
-0.10024666 0.032203864 0.54700005 -2.6454785e+38
-0.099405266 0.032262735 0.54800004 -2.6453215e+38
-0.09856014 0.03232161 0.54900002 -2.6586134e+38
-0.097533606 0.03232161 0.54900002 -2.6585625e+38
-0.097034439 0.032498229 0.55200005 -2.6718556e+38
-0.095828377 0.032439359 0.551 -2.6984387e+38
-0.094798103 0.032439359 0.551 -2.7117304e+38
-0.093938015 0.032498229 0.55200005 -2.7118348e+38
-0.092905879 0.032498229 0.55200005 -2.711887e+38
-0.091873735 0.032498229 0.55200005 -2.7250754e+38
-0.090841599 0.032498229 0.55200005 -2.7250754e+38
-0.089809455 0.032498229 0.55200005 -2.7116799e+38
-0.088938147 0.032557104 0.55300003 -2.7116801e+38
-0.088063091 0.032615975 0.55400002 -2.6984403e+38
-0.087027214 0.032615975 0.55400002 -2.6984403e+38
-0.086146548 0.032674849 0.55500001 -2.7780898e+38
-0.08526215 0.032733727 0.55600005 -2.7913818e+38
-0.084374011 0.032792598 0.55700004 -2.7780875e+38
-0.083332524 0.032792598 0.55700004 -2.8448609e+38
-0.082438767 0.032851472 0.55800003 -2.7920605e+38
-0.08139541 0.032851472 0.55800003 -2.7120989e+38
-0.080496058 0.032910343 0.55900002 -2.8050388e+38
-0.079735085 0.033028092 0.56100005 -2.8182789e+38
-0.078826375 0.033086967 0.56200004 -2.8182787e+38
-0.077775538 0.033086967 0.56200004 -2.8049341e+38
-0.076724701 0.033086967 0.56200004 -2.8582558e+38
-0.075808518 0.033145837 0.56300002 -2.9383737e+38
-0.075286932 0.033381335 0.56700003 -2.9251877e+38
-0.074750386 0.03361683 0.57100004 -2.9251877e+38
-0.073940806 0.033734575 0.57300001 -2.9384323e+38
-0.072869398 0.033734575 0.57300001 -2.8717103e+38
-0.071923293 0.033793449 0.574 -2.8583075e+38
-0.070850015 0.033793449 0.574 -2.8048788e+38
-0.0698983 0.033852324 0.57500005 -2.8845807e+38
-0.068823159 0.033852324 0.57500005 -3.3650288e+38
-0.067983657 0.033970069 0.57700002 -3.2462345e+38
-0.066904776 0.033970069 0.57700002 nan
-0.065825887 0.033970069 0.57700002 nan
-0.13889816 0.034439929 0.56700003 -2.874214e+38
-0.13735178 0.034318447 0.565 -2.8603921e+38
-0.13605411 0.034257706 0.56400001 -2.7268452e+38
-0.13452081 0.034136225 0.56200004 -2.7663627e+38
-0.13323249 0.034075487 0.56100005 -2.7396735e+38
-0.13171226 0.033954002 0.55900002 -2.6996386e+38
-0.12973204 0.033711039 0.55500001 -2.6861902e+38
-0.1286943 0.033711039 0.55500001 -2.7126705e+38
-0.12742652 0.033650301 0.55400002 -2.6860338e+38
-0.12639064 0.033650301 0.55400002 -2.6328123e+38
-0.12512849 0.033589561 0.55300003 -2.6327083e+38
-0.12387008 0.03352882 0.55200005 -2.6458965e+38
-0.12283795 0.03352882 0.55200005 -2.632603e+38
-0.12158514 0.033468079 0.551 -2.6193085e+38
-0.12055486 0.033468079 0.551 -2.6059647e+38
-0.11952459 0.033468079 0.551 -2.5926215e+38
-0.11827927 0.033407338 0.55000001 -2.5925181e+38
-0.11725087 0.033407338 0.55000001 -2.6057592e+38
-0.11622247 0.033407338 0.55000001 -2.6191035e+38
-0.11519407 0.033407338 0.55000001 -2.6057071e+38
-0.11416567 0.033407338 0.55000001 -2.605499e+38
-0.11252016 0.033225119 0.54700005 -2.6320317e+38
-0.1117012 0.033285856 0.54800004 -2.6320319e+38
-0.11047457 0.033225119 0.54700005 -2.6320319e+38
-0.10965188 0.033285856 0.54800004 -2.6452716e+38
-0.10862722 0.033285856 0.54800004 -2.6585631e+38
-0.10760255 0.033285856 0.54800004 -2.6719075e+38
-0.10638341 0.033225119 0.54700005 -2.6985444e+38
-0.10574585 0.033346597 0.54900002 -2.6985973e+38
-0.10471933 0.033346597 0.54900002 -2.6852539e+38
-0.10369279 0.033346597 0.54900002 -2.6719604e+38
-0.10266626 0.033346597 0.54900002 -2.6453229e+38
-0.10163973 0.033346597 0.54900002 -2.6719075e+38
-0.10042993 0.033285856 0.54800004 -2.6852519e+38
-0.099586666 0.033346597 0.54900002 -2.6586651e+38
-0.098739661 0.033407338 0.55000001 -2.6454235e+38
-0.097533606 0.033346597 0.54900002 -2.6719584e+38
-0.09685865 0.033468079 0.551 -2.6985444e+38
-0.095828377 0.033468079 0.551 -2.6852519e+38
-0.094798103 0.033468079 0.551 -2.6720115e+38
-0.093938015 0.03352882 0.55200005 -2.7117835e+38
-0.092905879 0.03352882 0.55200005 -2.7250237e+38
-0.092040174 0.033589561 0.55300003 -2.7250237e+38
-0.091006167 0.033589561 0.55300003 -2.7116793e+38
-0.089972153 0.033589561 0.55300003 -2.7250237e+38
-0.089098968 0.033650301 0.55400002 -2.7250239e+38
-0.088063091 0.033650301 0.55400002 -2.7250772e+38
-0.087184295 0.033711039 0.55500001 -2.7117851e+38
-0.086301774 0.033771783 0.55600005 -2.7385766e+38
-0.08526215 0.033771783 0.55600005 -2.7385243e+38
-0.084374011 0.033832524 0.55700004 -2.7781908e+38
-0.083332524 0.033832524 0.55700004 -2.8447558e+38
-0.082438767 0.033893261 0.55800003 -2.8183826e+38
-0.08183302 0.034075487 0.56100005 -2.8050388e+38
-0.080784053 0.034075487 0.56100005 -2.8183311e+38
-0.079877213 0.034136225 0.56200004 -2.8316757e+38
-0.078826375 0.034136225 0.56200004 -2.8451736e+38
-0.077775538 0.034136225 0.56200004 -2.8319331e+38
-0.076861225 0.034196965 0.56300002 -2.8452247e+38
-0.075943165 0.034257706 0.56400001 -2.9118946e+38
-0.075552486 0.034561407 0.56900001 -2.925292e+38
-0.0748813 0.034743629 0.57200003 -2.9386364e+38
-0.073811762 0.034743629 0.57200003 -2.9250867e+38
-0.072996572 0.034865115 0.574 -2.8983458e+38
-0.072048597 0.034925856 0.57500005 -2.8584677e+38
-0.070973448 0.034925856 0.57500005 -2.7517127e+38
-0.070019864 0.034986593 0.57600003 -2.8580481e+38
-0.068823159 0.034925856 0.57500005 -3.3384455e+38
-0.067983657 0.035047334 0.57700002 -3.2995067e+38
-0.066904776 0.035047334 0.57700002 nan
-0.13995835 0.035498522 0.56700003 -3.0479509e+38
-0.13889816 0.035498522 0.56700003 -2.8476791e+38
-0.13735178 0.035373308 0.565 -2.8739951e+38
-0.13605411 0.035310701 0.56400001 -2.7270519e+38
-0.13476017 0.035248093 0.56300002 -2.7797065e+38
-0.13323249 0.035122879 0.56100005 -2.7529653e+38
-0.13171226 0.034997661 0.55900002 -2.6863461e+38
-0.12996578 0.034809839 0.55600005 -2.6728975e+38
-0.1286943 0.034747232 0.55500001 -2.6727934e+38
-0.12742652 0.034684625 0.55400002 -2.6460008e+38
-0.12639064 0.034684625 0.55400002 -2.6724817e+38
-0.12535477 0.034684625 0.55400002 -2.6590852e+38
-0.12409448 0.034622017 0.55300003 -2.6455846e+38
-0.12306046 0.034622017 0.55300003 -2.6321874e+38
-0.1218058 0.03455941 0.55200005 -2.6455825e+38
-0.12077367 0.03455941 0.55200005 -2.6323945e+38
-0.11952459 0.034496803 0.551 -2.5792771e+38
-0.11849432 0.034496803 0.551 -2.5924134e+38
-0.11746405 0.034496803 0.551 -2.6322385e+38
-0.11643378 0.034496803 0.551 -2.6189988e+38
-0.11540351 0.034496803 0.551 -2.6057071e+38
-0.11416567 0.034434192 0.55000001 -2.6056025e+38
-0.11313727 0.034434192 0.55000001 -2.6454268e+38
-0.11190504 0.034371585 0.54900002 -2.6454268e+38
-0.1108785 0.034371585 0.54900002 -2.6321345e+38
-0.10985198 0.034371585 0.54900002 -2.6321351e+38
-0.10882545 0.034371585 0.54900002 -2.6187915e+38
-0.10779891 0.034371585 0.54900002 -2.6319797e+38
-0.10677239 0.034371585 0.54900002 -2.6718049e+38
-0.10574585 0.034371585 0.54900002 -2.6852016e+38
-0.10491007 0.034434192 0.55000001 -2.6985983e+38
-0.10388166 0.034434192 0.55000001 -2.6852527e+38
-0.10285327 0.034434192 0.55000001 -2.6585112e+38
-0.10163973 0.034371585 0.54900002 -2.6584598e+38
-0.1006132 0.034371585 0.54900002 -2.6584605e+38
-0.099768065 0.034434192 0.55000001 -2.6585623e+38
-0.098739661 0.034434192 0.55000001 -2.6719576e+38
-0.097711265 0.034434192 0.55000001 -2.6720109e+38
-0.09685865 0.034496803 0.551 -2.6720117e+38
-0.095828377 0.034496803 0.551 -2.6852531e+38
-0.094798103 0.034496803 0.551 -2.6719093e+38
-0.093938015 0.03455941 0.55200005 -2.6719588e+38
-0.092905879 0.03455941 0.55200005 -2.6720097e+38
-0.092040174 0.034622017 0.55300003 -2.6983876e+38
-0.091006167 0.034622017 0.55300003 -2.7249728e+38
-0.090134852 0.034684625 0.55400002 -2.7117324e+38
-0.089098968 0.034684625 0.55400002 -2.7518177e+38
-0.088063091 0.034684625 0.55400002 -2.7518711e+38
-0.087184295 0.034747232 0.55500001 -2.7518715e+38
-0.086301774 0.034809839 0.55600005 -2.7519731e+38
-0.08526215 0.034809839 0.55600005 -2.7253358e+38
-0.084374011 0.034872446 0.55700004 -2.7915895e+38
-0.083482131 0.034935053 0.55800003 -2.8315183e+38
-0.082438767 0.034935053 0.55800003 -2.8315189e+38
