# .PCD v0.7 - Point Cloud Data file format
VERSION 0.7
FIELDS x y z rgb
SIZE 4 4 4 4
TYPE F F F F
COUNT 1 1 1 1
WIDTH 958
HEIGHT 1
VIEWPOINT 0 0 0 1 0 0 0
POINTS 958
DATA ascii
0.80252975 -0.072741166 -0.11597291 -2.2463988e+38
0.80211568 -0.071412556 -0.11606786 -2.2198144e+38
0.80339891 -0.069917232 -0.11497029 -2.1932266e+38
0.8046844 -0.068429008 -0.11387217 -2.1799339e+38
0.80512232 -0.067027725 -0.11337009 -2.1799339e+38
0.80641168 -0.065551996 -0.11227112 -2.2198108e+38
0.80600142 -0.064235851 -0.11236516 -2.1799349e+38
0.80644274 -0.062845238 -0.11186229 -2.15335e+38
0.80773705 -0.061385531 -0.11076218 -2.2198108e+38
0.80903363 -0.059932955 -0.10966154 -2.233103e+38
0.80947936 -0.05855659 -0.10915765 -2.2331038e+38
0.80907249 -0.057251129 -0.10925094 -2.233104e+38
0.80866557 -0.055945668 -0.10934423 -2.2331032e+38
0.81857157 -0.051246598 -0.10185115 -2.233103e+38
0.82074124 -0.049789019 -0.10014863 -2.2995644e+38
0.8229143 -0.048342124 -0.098445334 -2.2729799e+38
0.82251793 -0.047070514 -0.098536201 -2.4457805e+38
0.83249891 -0.042611875 -0.091025911 -2.7647965e+38
0.83210981 -0.041363414 -0.091115125 -2.6185794e+38
0.83258098 -0.040068977 -0.090605408 nan
0.83219242 -0.03882229 -0.090694495 nan
0.82914156 -0.12114262 -0.10622314 -2.5255332e+38
0.82708269 -0.12014038 -0.10750175 -2.4723641e+38
0.82502162 -0.11913101 -0.10878086 -2.4457795e+38
0.82378507 -0.11796559 -0.10946767 -2.4457795e+38
0.82172006 -0.11694378 -0.11074767 -2.4324872e+38
0.82048082 -0.11576945 -0.11143507 -2.419195e+38
0.82006896 -0.11444797 -0.11152951 -2.3926104e+38
0.81799895 -0.11341011 -0.11281069 -2.3926104e+38
0.81592673 -0.11236513 -0.11409234 -2.326149e+38
0.81468248 -0.11117478 -0.1147809 -2.3128567e+38
0.81426781 -0.10984439 -0.11487597 -2.3128567e+38
0.81219053 -0.10878339 -0.1161588 -2.326149e+38
0.81177479 -0.10744942 -0.11625412 -2.3128567e+38
0.81052667 -0.10624661 -0.11694357 -2.3128567e+38
0.81011033 -0.10491087 -0.11703902 -2.2862728e+38
0.80802703 -0.10383026 -0.11832322 -2.2729801e+38
0.80760962 -0.10249097 -0.11841893 -2.2596876e+38
0.80719215 -0.10115167 -0.11851463 -2.2596876e+38
0.80510437 -0.10005683 -0.11979989 -2.2596876e+38
0.80468583 -0.098713972 -0.11989585 -2.2463953e+38
0.80426729 -0.097371124 -0.11999181 -2.2463953e+38
0.80384874 -0.096028253 -0.12008777 -2.2596876e+38
0.8034302 -0.094685391 -0.12018374 -2.2596876e+38
0.80301166 -0.093342528 -0.12027969 -2.2463953e+38
0.80259311 -0.091999672 -0.12037566 -2.2065185e+38
0.80217457 -0.09065681 -0.12047162 -2.1932262e+38
0.80175602 -0.089313954 -0.12056758 -2.1799339e+38
0.80133748 -0.087971106 -0.12066354 -2.1799339e+38
0.80091894 -0.086628228 -0.1207595 -2.1666416e+38
0.80050039 -0.085285373 -0.12085546 -2.1666416e+38
0.80176556 -0.083740808 -0.11975882 -2.1666416e+38
0.80134809 -0.082401514 -0.11985452 -2.1799339e+38
0.80093068 -0.081062198 -0.11995023 -2.1799339e+38
0.80051327 -0.079722904 -0.12004594 -2.1799339e+38
0.8000958 -0.078383602 -0.12014165 -2.1666416e+38
0.80136758 -0.07686042 -0.11904351 -2.1799339e+38
0.80095124 -0.07552468 -0.11913896 -2.1799339e+38
0.80307209 -0.073923767 -0.11744286 -2.1932262e+38
0.80265743 -0.072593369 -0.11753794 -2.1799351e+38
0.80308956 -0.071178168 -0.11703558 -2.1932278e+38
0.80437016 -0.06968347 -0.1159354 -2.1799341e+38
0.8056531 -0.068195872 -0.11483469 -2.1799339e+38
0.8060897 -0.06679491 -0.11433131 -2.1533494e+38
0.80567837 -0.065475211 -0.11442561 -2.1666416e+38
0.80696619 -0.064003654 -0.1133238 -2.2065187e+38
0.80740619 -0.062613361 -0.11281963 -2.2331036e+38
0.80699652 -0.061299 -0.11291355 -2.2198108e+38
0.80828935 -0.059843473 -0.11181058 -2.233103e+38
0.80958444 -0.058395084 -0.1107071 -2.2198108e+38
0.80917698 -0.057087835 -0.11080051 -2.1932262e+38
0.80962247 -0.055715363 -0.11029506 -2.233103e+38
0.83427197 -0.042342413 -0.091335267 -2.7647963e+38
0.8338834 -0.041095715 -0.091424353 -2.6052871e+38
0.83349484 -0.039849043 -0.09151344 nan
0.83310628 -0.038602356 -0.091602534 nan
0.83271772 -0.037355669 -0.091691621 nan
0.82804352 -0.11990913 -0.10845649 -2.4723641e+38
0.82598507 -0.11889914 -0.10973819 -2.4324872e+38
0.82309878 -0.11803067 -0.11161458 -2.419195e+38
0.82186139 -0.1168578 -0.11230315 -2.419195e+38
0.8197962 -0.11582645 -0.11358643 -2.419195e+38
0.8193832 -0.11450141 -0.11368112 -2.3394413e+38
0.81731474 -0.11345936 -0.11496512 -2.3128567e+38
0.81607229 -0.11227047 -0.11565483 -2.2995644e+38
0.81565768 -0.11094008 -0.1157499 -2.3128567e+38
0.81358415 -0.109882 -0.11703508 -2.3128567e+38
0.81233841 -0.10868242 -0.11772557 -2.3128567e+38
0.81192207 -0.10734669 -0.11782102 -2.326149e+38
0.8098436 -0.10627259 -0.11910731 -2.3394413e+38
0.80942619 -0.10493328 -0.11920302 -2.2862722e+38
0.80900878 -0.10359399 -0.11929872 -2.2729799e+38
0.80859131 -0.1022547 -0.11939443 -2.2729799e+38
0.80650723 -0.10116278 -0.12068202 -2.2862722e+38
0.80608869 -0.099819928 -0.12077798 -2.2995644e+38
0.80567014 -0.098477066 -0.12087394 -2.2729799e+38
0.80525166 -0.097134218 -0.1209699 -2.2596876e+38
0.80483311 -0.095791347 -0.12106586 -2.2596876e+38
0.80441457 -0.094448484 -0.12116183 -2.2729803e+38
0.80315936 -0.093218647 -0.12185447 -2.2463953e+38
0.80274028 -0.091873981 -0.12195056 -2.1932262e+38
0.8023212 -0.090529352 -0.12204665 -2.1799339e+38
0.8027404 -0.089077048 -0.12154566 -2.1799339e+38
0.80232185 -0.0877342 -0.12164163 -2.1666416e+38
0.8010639 -0.086495437 -0.12233491 -2.1666416e+38
0.80064481 -0.085150786 -0.122431 -2.1666416e+38
0.80106622 -0.083705612 -0.12192951 -2.1533494e+38
0.80064768 -0.082362749 -0.12202547 -2.1533494e+38
0.80022913 -0.081019886 -0.12212143 -2.1799339e+38
0.79981059 -0.07967703 -0.12221739 -2.1799339e+38
0.80107754 -0.078147329 -0.12111714 -2.1666416e+38
0.80066013 -0.076808028 -0.12121285 -2.1799339e+38
0.80193037 -0.075289033 -0.12011186 -2.1799339e+38
0.80404723 -0.073689066 -0.11841186 -2.1666416e+38
0.80363262 -0.072358668 -0.11850693 -2.1932262e+38
0.80406344 -0.07094378 -0.11800329 -2.1932262e+38
0.80364937 -0.069615155 -0.11809823 -2.1932262e+38
0.80492848 -0.068124644 -0.11699521 -2.1932262e+38
0.80620986 -0.066641271 -0.11589164 -2.1932262e+38
0.80664575 -0.065242387 -0.11538685 -2.1932262e+38
0.80623442 -0.063922666 -0.11548115 -2.2198108e+38
0.80752075 -0.062455319 -0.11437648 -2.2198108e+38
0.80795997 -0.061067123 -0.11387088 -2.2198108e+38
0.80755031 -0.059752762 -0.1139648 -2.2198108e+38
0.81054264 -0.058164466 -0.11165924 -2.2198108e+38
0.81013519 -0.056857217 -0.11175266 -2.2198108e+38
0.81057942 -0.055485059 -0.11124592 -2.233103e+38
0.83689904 -0.042024687 -0.091040768 -2.7249208e+38
0.83651155 -0.040781565 -0.091129601 -2.4059031e+38
0.83612412 -0.039538454 -0.091218434 nan
0.83573663 -0.038295314 -0.091307268 nan
0.8353492 -0.037052192 -0.091396101 nan
0.82941294 -0.12098869 -0.10931755 -2.4457795e+38
0.82735819 -0.11998163 -0.1106016 -2.4457795e+38
0.82612479 -0.11881737 -0.11129086 -2.3793181e+38
0.82406616 -0.11779785 -0.1125758 -2.3660258e+38
0.82283002 -0.11662467 -0.11326568 -2.3527336e+38
0.82076746 -0.1155927 -0.11455154 -2.3660258e+38
0.82035446 -0.11426765 -0.11464623 -2.326149e+38
0.81828862 -0.11322497 -0.11593281 -2.2995644e+38
0.81704754 -0.11203576 -0.11662383 -2.3128567e+38
0.81663287 -0.11070537 -0.1167189 -2.2995644e+38
0.81456196 -0.10964667 -0.11800668 -2.326149e+38
0.81331754 -0.10844678 -0.11869846 -2.3394413e+38
0.81124276 -0.10737561 -0.11998709 -2.3394413e+38
0.81082535 -0.10603631 -0.1200828 -2.326149e+38
0.80874723 -0.10495446 -0.12137222 -2.2729799e+38
0.80832869 -0.1036116 -0.12146819 -2.2729799e+38
0.80791014 -0.10226874 -0.12156414 -2.2596876e+38
0.8074916 -0.10092589 -0.12166011 -2.2729799e+38
0.8062405 -0.099704616 -0.12235341 -2.2729799e+38
0.80582142 -0.09835998 -0.1224495 -2.2596876e+38
0.80540234 -0.097015344 -0.12254559 -2.2463953e+38
0.8049832 -0.0956707 -0.12264168 -2.2596876e+38
0.80456412 -0.094326064 -0.12273777 -2.2729799e+38
0.80414504 -0.092981428 -0.12283386 -2.2463953e+38
0.80205411 -0.091858603 -0.1241262 -2.1932262e+38
0.80163389 -0.090510406 -0.12422255 -2.1799339e+38
0.80121368 -0.089162201 -0.12431889 -2.1666416e+38
0.80079347 -0.087813988 -0.12441523 -2.1666416e+38
0.80037332 -0.086465791 -0.12451158 -2.1533494e+38
0.7999531 -0.085117579 -0.12460792 -2.1533494e+38
0.80121136 -0.083568938 -0.12350647 -2.1533494e+38
0.80079222 -0.082224302 -0.12360256 -2.1533494e+38
0.80037314 -0.080879636 -0.12369865 -2.1666416e+38
0.8007949 -0.079440124 -0.12319548 -2.1666416e+38
0.80037636 -0.078097276 -0.12329144 -2.1799339e+38
0.79995781 -0.076754406 -0.1233874 -2.1799339e+38
0.80122441 -0.075232461 -0.12228405 -2.1799339e+38
0.80249316 -0.073717639 -0.12118021 -2.1799339e+38
0.80207682 -0.072381906 -0.12127567 -2.1932262e+38
0.80250472 -0.070961982 -0.12077109 -2.1932262e+38
0.80377847 -0.069463186 -0.11966608 -2.1799339e+38
0.80420911 -0.068052173 -0.11916087 -2.1932262e+38
0.80548674 -0.066565834 -0.11805501 -2.1932262e+38
0.80676669 -0.06508664 -0.1169486 -2.2198108e+38
0.80720174 -0.06368985 -0.11644237 -2.2198108e+38
0.80679041 -0.062370151 -0.11653668 -2.1932262e+38
0.80807525 -0.060906984 -0.11542916 -2.2198108e+38
0.80851376 -0.059520889 -0.11492214 -2.2198108e+38
0.81150085 -0.057933845 -0.11261138 -2.2198108e+38
0.81109339 -0.056626596 -0.1127048 -2.2198108e+38
0.81153631 -0.055254754 -0.11219677 -2.2862722e+38
0.83648825 -0.043149225 -0.093062259 -2.8711357e+38
0.83609962 -0.041902538 -0.093151353 -2.7382101e+38
0.83571106 -0.040655836 -0.09324044 -2.3128567e+38
0.83789176 -0.039274111 -0.091521055 nan
0.83664787 -0.03807601 -0.092212707 nan
0.83626044 -0.036832884 -0.09230154 nan
0.82790995 -0.12121747 -0.1120614 -2.4059027e+38
0.82749975 -0.11990132 -0.11215544 -2.3926104e+38
0.82544482 -0.11888473 -0.11344272 -2.3527336e+38
0.82421058 -0.11771303 -0.11413377 -2.3394413e+38
0.82215172 -0.11668397 -0.11542197 -2.3394413e+38
0.82173872 -0.11535893 -0.11551666 -2.3394413e+38
0.81967658 -0.11431919 -0.11680558 -2.3128567e+38
0.81843734 -0.11313145 -0.11749777 -2.3128567e+38
0.81802273 -0.11180106 -0.11759284 -2.326149e+38
0.81595552 -0.11074529 -0.11888296 -2.326149e+38
0.81471294 -0.10954687 -0.11957592 -2.326149e+38
0.81264192 -0.10847863 -0.12086687 -2.326149e+38
0.81056863 -0.10740329 -0.12215839 -2.326149e+38
0.81015009 -0.10606042 -0.12225435 -2.3128567e+38
0.80973154 -0.10471756 -0.12235031 -2.2596876e+38
0.809313 -0.1033747 -0.12244627 -2.2596876e+38
0.80806434 -0.10215668 -0.12314063 -2.2463953e+38
0.80764526 -0.10081204 -0.12323672 -2.233103e+38
0.80722612 -0.099467397 -0.12333281 -2.233103e+38
0.80514342 -0.098361783 -0.12462647 -2.2463953e+38
0.8047232 -0.09701357 -0.12472282 -2.2463953e+38
0.80430299 -0.095665373 -0.12481916 -2.233103e+38
0.80388278 -0.094317168 -0.1249155 -2.233103e+38
0.80346256 -0.092968971 -0.12501185 -2.2198108e+38
0.80304235 -0.091620758 -0.12510818 -2.1799339e+38
0.80262214 -0.090272561 -0.12520453 -2.1666416e+38
0.80220199 -0.088924348 -0.12530087 -2.1799339e+38
0.80178177 -0.087576143 -0.12539722 -2.1799339e+38
0.80136156 -0.086227946 -0.12549356 -2.1666416e+38
0.79926664 -0.085083127 -0.12679 -2.1666416e+38
0.79884535 -0.083731368 -0.12688659 -2.1533494e+38
0.80010092 -0.082183339 -0.12578258 -2.1666416e+38
0.80135876 -0.080642417 -0.12467805 -2.1799339e+38
0.80093968 -0.079297788 -0.12477413 -2.1799339e+38
0.80136073 -0.077860378 -0.12426953 -2.1799339e+38
0.80094218 -0.0765175 -0.12436549 -2.1666416e+38
0.80052364 -0.075174645 -0.12446145 -2.1134725e+38
0.80178869 -0.073656887 -0.12335525 -2.1134725e+38
0.80137128 -0.072317593 -0.12345095 -2.1799339e+38
0.80348253 -0.070726648 -0.1217427 -2.1799339e+38
0.80475366 -0.069228478 -0.12063509 -2.1799339e+38
0.80433905 -0.067898095 -0.12073016 -2.1932262e+38
0.80476892 -0.066489153 -0.12022352 -2.1932262e+38
0.80604506 -0.065007024 -0.11911482 -2.1932262e+38
0.80732346 -0.063532025 -0.11800555 -2.2198108e+38
0.80775779 -0.062137332 -0.1174979 -2.2198108e+38
0.80734646 -0.060817637 -0.1175922 -2.2198108e+38
0.80862981 -0.059358642 -0.11648184 -2.2198108e+38
0.8107633 -0.057838932 -0.11476846 -2.2198108e+38
0.81205165 -0.056395978 -0.11365694 -2.233103e+38
0.81249326 -0.055024449 -0.1131476 -2.233103e+38
0.81378549 -0.053593967 -0.1120352 -2.233103e+38
0.83910894 -0.042829197 -0.09276282 -2.8711333e+38
0.83872145 -0.041586071 -0.092851654 -2.8046711e+38
0.83833402 -0.040342946 -0.092940487 -2.4324872e+38
0.83794653 -0.039099835 -0.09302932 nan
0.83927047 -0.037770849 -0.091909617 nan
0.82928497 -0.12230142 -0.11292598 -2.4590718e+38
0.82723486 -0.12129133 -0.11421534 -2.4059027e+38
0.82682353 -0.11997163 -0.11430965 -2.3926104e+38
0.8264122 -0.11865191 -0.11440395 -2.3527336e+38
0.82353598 -0.11777526 -0.11629239 -2.3394413e+38
0.82312304 -0.11645022 -0.11638708 -2.326149e+38
0.82106459 -0.11541341 -0.11767835 -2.3128567e+38
0.82065052 -0.1140848 -0.11777329 -2.3128567e+38
0.81941259 -0.11289674 -0.11846678 -2.3128567e+38
0.81734908 -0.11184392 -0.11975923 -2.2729799e+38
0.81610841 -0.11064696 -0.12045335 -2.2729799e+38
0.81404108 -0.10958166 -0.12174666 -2.2862722e+38
0.81362367 -0.10824236 -0.12184236 -2.2862722e+38
0.81155294 -0.10716638 -0.12313647 -2.2862722e+38
0.81030726 -0.10595339 -0.12383173 -2.2862722e+38
0.80988818 -0.10460875 -0.12392782 -2.2463953e+38
0.80781251 -0.10351675 -0.12522309 -2.233103e+38
0.8073923 -0.10216854 -0.12531942 -2.233103e+38
0.80697209 -0.10082034 -0.12541577 -2.233103e+38
0.80655187 -0.099472135 -0.12551211 -2.2065185e+38
0.80447072 -0.098362312 -0.1268086 -2.233103e+38
0.80404937 -0.097010538 -0.12690519 -2.233103e+38
0.80362809 -0.095658779 -0.12700179 -2.2065185e+38
0.80320674 -0.094307005 -0.12709838 -2.1799339e+38
0.8027854 -0.092955232 -0.12719499 -2.1799339e+38
0.80236411 -0.091603488 -0.12729158 -2.1666416e+38
0.80194277 -0.090251714 -0.12738818 -2.1666416e+38
0.80152148 -0.08889994 -0.12748478 -2.1932262e+38
0.80110013 -0.087548181 -0.12758137 -2.1932262e+38
0.80067885 -0.086196423 -0.12767798 -2.1799339e+38
0.8002575 -0.084844649 -0.12777457 -2.1799339e+38
0.79983622 -0.08349289 -0.12787117 -2.1533494e+38
0.80108917 -0.081945494 -0.12676457 -2.1533494e+38
0.80066895 -0.080597296 -0.1268609 -2.1799339e+38
0.80024874 -0.079249084 -0.12695725 -2.1799339e+38
0.80150622 -0.077715941 -0.12584959 -2.1134725e+38
0.80108714 -0.07637129 -0.12594567 -2.1001802e+38
0.80150795 -0.074937738 -0.12543952 -2.1001802e+38
0.80277044 -0.073420614 -0.12433074 -2.1267648e+38
0.80235296 -0.072081313 -0.12442644 -2.1799339e+38
0.80361873 -0.07057488 -0.12331691 -2.1799339e+38
0.80404454 -0.069157355 -0.12280962 -2.1799339e+38
0.80531424 -0.067663386 -0.12169917 -2.1666416e+38
0.8057428 -0.066254765 -0.12119124 -2.1400571e+38
0.80532873 -0.064926155 -0.12128618 -2.1267648e+38
0.80660337 -0.06344822 -0.12017462 -2.1400571e+38
0.80788022 -0.061977386 -0.11906251 -2.1533494e+38
0.80831385 -0.060584817 -0.11855344 -2.2198108e+38
0.80790251 -0.059265092 -0.11864775 -2.2198108e+38
0.810031 -0.057742774 -0.11693073 -2.2198108e+38
0.8113156 -0.056296885 -0.11581688 -2.233103e+38
0.8126024 -0.054858122 -0.1147025 -2.233103e+38
0.8130433 -0.053488698 -0.11419173 -2.2596876e+38
0.81433398 -0.052062396 -0.11307647 -2.2463953e+38
0.84002018 -0.042609889 -0.09366826 -2.8578406e+38
0.83963269 -0.041366763 -0.093757093 -2.8312556e+38
0.8400985 -0.040077474 -0.093240634 -2.6717546e+38
0.83971161 -0.038836125 -0.09332934 nan
0.83847034 -0.03763739 -0.094023593 nan
0.83024967 -0.12206923 -0.1138846 -2.4059027e+38
0.82820219 -0.12105852 -0.11517655 -2.3926104e+38
0.82779086 -0.11973881 -0.11527085 -2.3926104e+38
0.82737952 -0.1184191 -0.11536516 -2.3527336e+38
0.8245073 -0.11754151 -0.1172575 -2.3394413e+38
0.8240943 -0.11621646 -0.11735219 -2.3128567e+38
0.82203847 -0.11517902 -0.11864606 -2.3128567e+38
0.82080239 -0.11399244 -0.11934072 -2.3128567e+38
0.81874269 -0.11294254 -0.12063551 -2.3128567e+38
0.81585765 -0.11202398 -0.12253074 -2.2729799e+38
0.81544024 -0.11068468 -0.12262644 -2.2596876e+38
0.81502283 -0.10934538 -0.12272215 -2.2463953e+38
0.81213111 -0.10840546 -0.12461895 -2.2463953e+38
0.81171203 -0.10706082 -0.12471504 -2.2862722e+38
0.81129295 -0.10571617 -0.12481113 -2.2862722e+38
0.80922097 -0.1046271 -0.12610872 -2.2463953e+38
0.80880076 -0.10327891 -0.12620506 -2.233103e+38
0.8067255 -0.10217913 -0.12750337 -2.1932262e+38
0.80630422 -0.10082736 -0.12759997 -2.1932262e+38
0.80588287 -0.099475585 -0.12769657 -2.2198108e+38
0.80546159 -0.098123841 -0.12779316 -2.233103e+38
0.80504024 -0.096772067 -0.12788977 -2.1932262e+38
0.8046189 -0.095420308 -0.12798636 -2.1799339e+38
0.80419761 -0.094068535 -0.12808296 -2.1799339e+38
0.80377626 -0.092716761 -0.12817955 -2.1799339e+38
0.80169106 -0.091584936 -0.12948017 -2.1799339e+38
0.80126864 -0.090229616 -0.12957703 -2.1799339e+38
0.80251235 -0.08866147 -0.12846935 -2.1932262e+38
0.802091 -0.087309711 -0.12856594 -2.1932262e+38
0.80000132 -0.086163633 -0.12986757 -2.1799339e+38
0.80124837 -0.084606178 -0.12875915 -2.1666416e+38
0.80082703 -0.083254419 -0.12885574 -2.1533494e+38
0.80040574 -0.081902646 -0.12895234 -2.1666416e+38
0.7999844 -0.080550887 -0.12904893 -2.1533494e+38
0.80123699 -0.079011239 -0.12793924 -2.1533494e+38
0.80081677 -0.077663042 -0.12803558 -2.1001802e+38
0.80207276 -0.076134071 -0.12692507 -2.1001802e+38
0.80249226 -0.07470084 -0.12641762 -2.1666416e+38
0.80375212 -0.073184341 -0.12530622 -2.1799339e+38
0.80333471 -0.07184504 -0.12540193 -2.1799339e+38
0.80291724 -0.070505746 -0.12549764 -2.1799339e+38
0.80418152 -0.0690035 -0.12438527 -2.1799349e+38
0.80460656 -0.067588061 -0.12387655 -2.1666426e+38
0.80671674 -0.066020377 -0.12215895 -2.1666416e+38
0.80630261 -0.064691767 -0.12225389 -2.1666416e+38
0.80757463 -0.063214459 -0.12113972 -2.1799339e+38
0.80884892 -0.061744254 -0.12002503 -2.1932262e+38
0.80928117 -0.060352001 -0.11951465 -2.1932262e+38
0.80886984 -0.059032276 -0.11960895 -2.1932262e+38
0.81014907 -0.057578128 -0.11849315 -2.233103e+38
0.81058478 -0.056196526 -0.11798199 -2.233103e+38
0.81186789 -0.054754827 -0.11686528 -2.233103e+38
0.81315321 -0.05332027 -0.11574806 -2.233103e+38
0.81359333 -0.051952932 -0.11523587 -2.2729799e+38
0.84224677 -0.041052189 -0.093449585 -3.1109661e+38
0.84186041 -0.039812613 -0.093538165 -3.273503e+38
0.84147406 -0.038573053 -0.093626745 nan
0.82916957 -0.12082569 -0.11613777 -2.3660258e+38
0.82794034 -0.1196566 -0.11683246 -2.3527336e+38
0.82752848 -0.11833511 -0.1169269 -2.326149e+38
0.82547855 -0.11730774 -0.11822262 -2.3128567e+38
0.82342649 -0.11627325 -0.11951882 -2.2862722e+38
0.82301235 -0.11494463 -0.11961377 -2.3128567e+38
0.82177758 -0.11375774 -0.12030972 -2.3128569e+38
0.81889927 -0.11284714 -0.12220825 -2.2995644e+38
0.8168394 -0.11178771 -0.12350623 -2.2596876e+38
0.81477726 -0.11072115 -0.12480477 -2.2463953e+38
0.81435871 -0.10937829 -0.12490073 -2.233103e+38
0.81311673 -0.10816824 -0.12559833 -2.233103e+38
0.81104964 -0.10708565 -0.12689801 -2.2463953e+38
0.81062943 -0.10573746 -0.12699434 -2.2463953e+38
0.81020921 -0.10438925 -0.12709069 -2.233103e+38
0.80813771 -0.10329241 -0.12839136 -2.233103e+38
0.80771637 -0.10194065 -0.12848796 -2.1932262e+38
0.80729508 -0.10058888 -0.12858455 -2.1799339e+38
0.80687374 -0.099237107 -0.12868115 -2.1799339e+38
0.8047967 -0.09812247 -0.12998308 -2.1799339e+38
0.80437422 -0.09676715 -0.13007993 -2.1666416e+38
0.8039518 -0.095411822 -0.13017678 -2.1666416e+38
0.80352938 -0.094056487 -0.13027363 -2.1666416e+38
0.80310696 -0.092701167 -0.13037048 -2.1666416e+38
0.80268455 -0.091345832 -0.13046734 -2.2198108e+38
0.80226213 -0.089990512 -0.13056418 -2.233103e+38
0.80183965 -0.088635191 -0.13066104 -2.1932262e+38
0.80141723 -0.087279871 -0.13075788 -2.1799339e+38
0.80099481 -0.085924536 -0.13085474 -2.1666416e+38
0.8005724 -0.084569201 -0.1309516 -2.1666416e+38
0.80014998 -0.083213873 -0.13104844 -2.1666416e+38
0.80139661 -0.081664167 -0.12993692 -2.1666416e+38
0.80097526 -0.080312409 -0.13003351 -2.1533494e+38
0.80055398 -0.07896065 -0.13013011 -2.1533494e+38
0.80180502 -0.077425197 -0.12901755 -2.1001802e+38
0.80305839 -0.075896852 -0.12790446 -2.1001802e+38
0.80347663 -0.074463934 -0.12739572 -2.1134725e+38
0.80305809 -0.073121071 -0.12749168 -2.1267648e+38
0.80263954 -0.071778215 -0.12758765 -2.1799339e+38
0.80389899 -0.070269465 -0.12647313 -2.1799339e+38
0.80348158 -0.068930171 -0.12656884 -2.1799341e+38
0.8047443 -0.067432113 -0.12545362 -2.1799339e+38
0.80516863 -0.066018783 -0.12494347 -2.1666416e+38
0.80727649 -0.064457379 -0.1232216 -2.1799339e+38
0.80686241 -0.063128754 -0.12331654 -2.1932262e+38
0.80981755 -0.061511122 -0.12098756 -2.1932262e+38
0.80940568 -0.060189635 -0.12108199 -2.1932262e+38
0.80983722 -0.058799457 -0.12057018 -2.1932262e+38
0.81111383 -0.057345938 -0.11945177 -2.219811e+38
0.81154823 -0.055964649 -0.11893931 -2.1932262e+38
0.81113857 -0.054650288 -0.11903324 -2.2463953e+38
0.81411141 -0.053089648 -0.1167002 -2.2862722e+38
0.81370401 -0.051782414 -0.11679362 -2.2995644e+38
0.82932091 -0.12074496 -0.11770055 -2.3128581e+38
0.82890904 -0.11942347 -0.11779498 -2.2862736e+38
0.82686281 -0.11839903 -0.11909305 -2.3128569e+38
0.82481444 -0.11736746 -0.12039158 -2.3128567e+38
0.82440037 -0.11603885 -0.12048653 -2.3128567e+38
0.82316744 -0.11485341 -0.12118366 -2.2995644e+38
0.82029468 -0.11394723 -0.12308569 -2.2862728e+38
0.81823856 -0.11289073 -0.12438602 -2.2596876e+38
0.81782115 -0.11155143 -0.12448172 -2.2463953e+38
0.81576163 -0.11048424 -0.12578285 -2.2463953e+38
0.81534308 -0.10914139 -0.12587881 -2.233103e+38
0.8124581 -0.10819602 -0.12778364 -2.233103e+38
0.81203789 -0.10684781 -0.12787999 -2.233103e+38
0.80997121 -0.10575747 -0.12918273 -2.233103e+38
0.80954987 -0.1044057 -0.12927933 -2.233103e+38
0.80747986 -0.10330468 -0.13058284 -2.233103e+38
0.80705744 -0.10194936 -0.13067968 -2.1799339e+38
0.80663502 -0.10059402 -0.13077654 -2.1799339e+38
0.8062126 -0.099238701 -0.1308734 -2.1666416e+38
0.80496353 -0.098001629 -0.13157424 -2.1799339e+38
0.80536771 -0.096528046 -0.1310671 -2.1666416e+38
0.80494529 -0.095172726 -0.13116394 -2.1666416e+38
0.80452287 -0.093817383 -0.1312608 -2.1666416e+38
0.80410045 -0.092462063 -0.13135765 -2.1666416e+38
0.80367798 -0.091106728 -0.1314545 -2.2065185e+38
0.80325556 -0.089751408 -0.13155136 -2.2065185e+38
0.80283314 -0.088396087 -0.13164821 -2.1799339e+38
0.80241072 -0.087040767 -0.13174506 -2.1666416e+38
0.8011567 -0.085787654 -0.13244705 -2.1799339e+38
0.80156589 -0.084330097 -0.13193877 -2.1799339e+38
0.80114341 -0.082974777 -0.13203561 -2.1533494e+38
0.80072099 -0.081619449 -0.13213247 -2.1533494e+38
0.80196613 -0.080073938 -0.13101809 -2.1666416e+38
0.80154485 -0.078722179 -0.13111468 -2.1666416e+38
0.8011235 -0.077370405 -0.13121128 -2.1001802e+38
0.80237311 -0.075839147 -0.13009587 -2.1267648e+38
0.80362493 -0.074315004 -0.12897992 -2.1001802e+38
0.8040424 -0.072884172 -0.12846975 -2.1001802e+38
0.80362386 -0.071541309 -0.12856571 -2.1666416e+38
0.80320531 -0.070198454 -0.12866168 -2.1799339e+38
0.80446327 -0.068693899 -0.12754433 -2.1666416e+38
0.80572343 -0.067196466 -0.1264265 -2.1799339e+38
0.80614644 -0.065783449 -0.12591508 -2.1799339e+38
0.80741048 -0.064298496 -0.12479632 -2.1799339e+38
0.80783629 -0.062894367 -0.12428425 -2.1932262e+38
0.8091042 -0.061421886 -0.12316465 -2.1932262e+38
0.81037438 -0.059956506 -0.1220445 -2.1932262e+38
0.81080461 -0.058566634 -0.12153141 -2.1932262e+38
0.81039327 -0.057246938 -0.12162571 -2.219811e+38
0.8116684 -0.055797599 -0.12050446 -2.2331036e+38
0.81210202 -0.054418415 -0.11999056 -2.2198108e+38
0.81338102 -0.052981533 -0.11886842 -2.2463953e+38
0.81466222 -0.051551796 -0.11774576 -2.2862728e+38
0.81758302 -0.11293307 -0.12656902 -2.2463953e+38
0.81716448 -0.1115902 -0.12666498 -2.233103e+38
0.81592625 -0.11038308 -0.12736493 -2.2463953e+38
0.81386656 -0.10930637 -0.12866928 -2.1932262e+38
0.81180471 -0.10822252 -0.12997411 -2.1932262e+38
0.81138337 -0.10687076 -0.1300707 -2.1932262e+38
0.81096208 -0.105519 -0.13016731 -2.1932262e+38
0.81054074 -0.10416723 -0.13026389 -2.233103e+38
0.80847335 -0.10306558 -0.13157 -2.2198108e+38
0.80805087 -0.10171026 -0.13166684 -2.1666416e+38
0.80680424 -0.10047641 -0.13236874 -2.1799339e+38
0.80638129 -0.099119306 -0.13246572 -2.2198108e+38
0.80595833 -0.097762212 -0.1325627 -2.2198108e+38
0.80553532 -0.096405104 -0.13265969 -2.1799339e+38
0.80511236 -0.095047995 -0.13275667 -2.1799339e+38
0.8030355 -0.093916059 -0.13406493 -2.1799339e+38
0.80261141 -0.092555396 -0.13416216 -2.1799339e+38
0.80218732 -0.091194727 -0.13425939 -2.1666416e+38
0.80176324 -0.089834057 -0.13435662 -2.1666416e+38
0.80133909 -0.08847338 -0.13445386 -2.1799339e+38
0.800915 -0.08711271 -0.13455109 -2.1666416e+38
0.80049092 -0.08575204 -0.13464832 -2.1799339e+38
0.80172849 -0.084191129 -0.13353249 -2.1799339e+38
0.80130547 -0.08283402 -0.13362947 -2.1001802e+38
0.80171448 -0.081380352 -0.13311963 -2.1001802e+38
0.80129206 -0.080025032 -0.13321647 -2.1001802e+38
0.80253571 -0.078483708 -0.13209924 -2.1001802e+38
0.80211437 -0.077131934 -0.13219585 -2.1267648e+38
0.80169302 -0.075780161 -0.13229245 -2.1267648e+38
0.80294114 -0.074253105 -0.13117418 -2.1666416e+38
0.80252093 -0.072904892 -0.13127053 -2.1533494e+38
0.80210072 -0.071556695 -0.13136686 -2.1134725e+38
0.80335331 -0.070043869 -0.13024758 -2.1134725e+38
0.80377114 -0.068618685 -0.12973572 -2.1666416e+38
0.8050276 -0.067118324 -0.12861554 -2.1799339e+38
0.80628622 -0.065625086 -0.12749486 -2.1400571e+38
0.80670846 -0.06421417 -0.126982 -2.1267648e+38
0.80881017 -0.062659971 -0.12525196 -2.1267648e+38
0.8083961 -0.061331376 -0.1253469 -2.1400571e+38
0.80966246 -0.059863064 -0.12422445 -2.1799339e+38
0.81093115 -0.058401886 -0.12310146 -2.2198108e+38
0.81136066 -0.057014119 -0.12258694 -2.233103e+38
0.81263316 -0.055565406 -0.12146309 -2.2463953e+38
0.81306547 -0.054186538 -0.1209479 -2.2995644e+38
0.81434184 -0.052750286 -0.11982316 -2.3128567e+38
0.85289812 -0.043698549 -0.091012597 -2.9641811e+38
0.85251617 -0.042473234 -0.091100156 -2.8445485e+38
0.85213429 -0.041247912 -0.091187716 -2.6185792e+38
0.8517524 -0.040022597 -0.091275282 nan
0.81733096 -0.11149051 -0.12824821 -2.2463953e+38
0.81363821 -0.11068758 -0.13076548 -2.233103e+38
0.81321687 -0.10933581 -0.13086209 -2.1932262e+38
0.81279558 -0.10798404 -0.13095869 -2.1799339e+38
0.81237423 -0.10663228 -0.13105528 -2.2065187e+38
0.81031168 -0.10553712 -0.13236345 -2.1799339e+38
0.8098892 -0.1041818 -0.13246031 -2.1799339e+38
0.80946678 -0.10282648 -0.13255717 -2.1799339e+38
0.80822206 -0.10159411 -0.13326024 -2.1666416e+38
0.80779904 -0.100237 -0.13335721 -2.1533494e+38
0.80572927 -0.099118702 -0.13466705 -2.1799339e+38
0.80530518 -0.097758025 -0.13476428 -2.1799339e+38
0.8048811 -0.096397355 -0.13486151 -2.1666416e+38
0.80445695 -0.095036685 -0.13495874 -2.1799339e+38
0.80403286 -0.093676008 -0.13505599 -2.1799349e+38
0.80360878 -0.092315353 -0.13515322 -2.1666424e+38
0.80318469 -0.090954684 -0.13525045 -2.1799339e+38
0.8027606 -0.089594007 -0.13534768 -2.1799339e+38
0.80233651 -0.088233337 -0.13544492 -2.1932262e+38
0.80191243 -0.086872667 -0.13554215 -2.2065185e+38
0.80148834 -0.08551199 -0.13563938 -2.2198108e+38
0.80272323 -0.083951712 -0.13452096 -2.1799339e+38
0.80230027 -0.082594603 -0.13461794 -2.1666416e+38
0.80270797 -0.081141248 -0.13410679 -2.1533494e+38
0.80228549 -0.079785928 -0.13420364 -2.1533494e+38
0.80186307 -0.078430593 -0.1343005 -2.1533494e+38
0.80310524 -0.076893456 -0.13318042 -2.1134725e+38
0.80268389 -0.075541683 -0.13327703 -2.1001802e+38
0.8022626 -0.074189939 -0.13337362 -2.1267648e+38
0.80184126 -0.072838165 -0.13347022 -2.1134725e+38
0.80141997 -0.071486406 -0.13356681 -2.1267648e+38
0.80266875 -0.069970638 -0.1324452 -2.1400571e+38
0.80391985 -0.068462007 -0.13132304 -2.1666416e+38
0.80433691 -0.067038924 -0.13080978 -2.1799339e+38
0.80559188 -0.06554275 -0.12968673 -2.1400585e+38
0.806849 -0.064053707 -0.12856321 -2.126766e+38
0.80643266 -0.062717974 -0.12865867 -2.126765e+38
0.80936998 -0.061096989 -0.12631461 -2.1267648e+38
0.81063378 -0.059629302 -0.12518957 -2.1799339e+38
0.81189984 -0.058168754 -0.12406398 -2.1932262e+38
0.81232798 -0.056781303 -0.12354815 -2.2463953e+38
0.81191665 -0.055461593 -0.12364246 -2.2463953e+38
0.81318766 -0.054017071 -0.12251577 -2.233103e+38
0.8136192 -0.052640289 -0.12199915 -2.2596876e+38
0.85464084 -0.04343066 -0.09129376 -2.8977211e+38
0.85510451 -0.042157177 -0.090769805 nan
0.85472375 -0.040935431 -0.090857111 nan
0.85349679 -0.039760064 -0.091556065 nan
0.87569928 -0.11065854 -0.087981671 -2.4059039e+38
0.87531739 -0.10943323 -0.088069238 -2.259688e+38
0.81668347 -0.11152708 -0.13044055 -2.1932262e+38
0.81462908 -0.11044911 -0.13175006 -2.1932262e+38
0.81420773 -0.10909734 -0.13184665 -2.1666416e+38
0.81215 -0.10800868 -0.13315693 -2.1799339e+38
0.81090873 -0.10678313 -0.13386078 -2.1799339e+38
0.81048578 -0.10542602 -0.13395776 -2.1666416e+38
0.81006277 -0.10406891 -0.13405474 -2.1666416e+38
0.80963981 -0.1027118 -0.13415173 -2.1666416e+38
0.8092168 -0.10135469 -0.1342487 -2.1666416e+38
0.80550766 -0.10048105 -0.13677607 -2.1666416e+38
0.80508244 -0.09911681 -0.13687356 -2.1666416e+38
0.80465722 -0.097752579 -0.13697104 -2.1666416e+38
0.80423206 -0.096388355 -0.13706854 -2.1533494e+38
0.80380684 -0.095024124 -0.13716602 -2.1533494e+38
0.80338162 -0.0936599 -0.13726351 -2.1666422e+38
0.8029564 -0.092295662 -0.137361 -2.1666422e+38
0.80253124 -0.090931416 -0.13745849 -2.1799339e+38
0.80210602 -0.089567192 -0.13755597 -2.1666416e+38
0.8016808 -0.088202961 -0.13765347 -2.1799339e+38
0.80125558 -0.08683873 -0.13775095 -2.2198108e+38
0.80083042 -0.085474506 -0.13784844 -2.1932262e+38
0.80206162 -0.083911292 -0.13672768 -2.1666416e+38
0.80163753 -0.082550615 -0.13682491 -2.1666416e+38
0.80287206 -0.080998071 -0.13570338 -2.1799339e+38
0.80327898 -0.079546824 -0.13519081 -2.1666416e+38
0.80285656 -0.078191489 -0.13528766 -2.1666416e+38
0.8040961 -0.076654986 -0.13416499 -2.1533494e+38
0.80367476 -0.075303212 -0.13426159 -2.1533494e+38
0.80325347 -0.073951468 -0.13435818 -2.1134725e+38
0.80283213 -0.072599694 -0.13445479 -2.1001802e+38
0.80241084 -0.071247935 -0.13455138 -2.1533494e+38
0.8019895 -0.069896162 -0.13464798 -2.1666416e+38
0.80323678 -0.068384595 -0.13352352 -2.1666416e+38
0.80532122 -0.066802017 -0.13178787 -2.1799339e+38
0.80657357 -0.065306477 -0.13066222 -2.126765e+38
0.80615616 -0.063967176 -0.13075793 -2.1400573e+38
0.80573875 -0.062627882 -0.13085364 -2.1400571e+38
0.81034386 -0.060862597 -0.12728232 -2.1533496e+38
0.81160504 -0.059395544 -0.12615468 -2.1932262e+38
0.81286848 -0.057935622 -0.12502649 -2.2198108e+38
0.81245661 -0.056614138 -0.12512092 -2.219811e+38
0.81288403 -0.055228774 -0.12460369 -2.1932262e+38
0.81415242 -0.053784881 -0.12347439 -2.1932262e+38
0.81374222 -0.052468732 -0.12356845 -2.1666416e+38
0.81417298 -0.051094051 -0.12305041 -2.6318716e+38
0.85676169 -0.044385154 -0.091485068 -2.9375939e+38
0.85638088 -0.043163389 -0.091572374 -2.9110148e+38
0.85768759 -0.041842397 -0.090434298 nan
0.85730791 -0.040624209 -0.090521351 nan
0.8552385 -0.039498128 -0.091834299 nan
0.8773613 -0.11289301 -0.08869902 -3.0976276e+38
0.87697941 -0.11166769 -0.088786587 -2.911531e+38
0.87740886 -0.11029333 -0.088267237 -2.7383137e+38
0.87702751 -0.10906979 -0.088354677 -2.5388299e+38
0.87664616 -0.10784626 -0.08844211 -2.4324911e+38
0.87626481 -0.10662273 -0.088529542 -2.2995677e+38
0.81441075 -0.11183555 -0.13385354 -2.219811e+38
0.81398833 -0.11048023 -0.13395038 -2.2198108e+38
0.81356591 -0.1091249 -0.13404724 -2.1799339e+38
0.81232649 -0.10790081 -0.13475227 -2.1799339e+38
0.81190354 -0.10654371 -0.13484925 -2.1666416e+38
0.80984449 -0.10544195 -0.136163 -2.1533494e+38
0.80778325 -0.10433307 -0.13747725 -2.1666416e+38
0.80735803 -0.10296884 -0.13757475 -2.1666416e+38
0.80693287 -0.1016046 -0.13767223 -2.1666416e+38
0.80650765 -0.10024037 -0.13776971 -2.1666416e+38
0.80608243 -0.098876134 -0.13786721 -2.1666416e+38
0.80565721 -0.097511902 -0.1379647 -2.1666416e+38
0.8044101 -0.09626288 -0.1386715 -2.1666416e+38
0.80398434 -0.094896875 -0.13876912 -2.1666416e+38
0.80438161 -0.093419224 -0.13825716 -2.1666422e+38
0.80395645 -0.092054993 -0.13835464 -2.1666422e+38
0.80353123 -0.090690747 -0.13845214 -2.1799339e+38
0.80310601 -0.089326523 -0.13854963 -2.1799339e+38
0.80268079 -0.087962285 -0.13864711 -2.1799339e+38
0.80225563 -0.086598054 -0.13874461 -2.1799339e+38
0.80183041 -0.08523383 -0.13884209 -2.1666416e+38
0.80140519 -0.083869599 -0.13893957 -2.1666416e+38
0.80097997 -0.082505375 -0.13903707 -2.1666416e+38
0.80221081 -0.080949903 -0.1379132 -2.1666416e+38
0.80344385 -0.079401545 -0.13678883 -2.1666416e+38
0.80302089 -0.078044437 -0.13688581 -2.1400571e+38
0.80342758 -0.07659705 -0.13637169 -2.1001802e+38
0.80300516 -0.075241745 -0.13646853 -2.086888e+38
0.80258274 -0.073886409 -0.13656539 -2.1001802e+38
0.80382299 -0.072361216 -0.13543935 -2.1267648e+38
0.80340171 -0.071009457 -0.13553596 -2.1134725e+38
0.80298036 -0.069657691 -0.13563254 -2.1267648e+38
0.80422503 -0.06814675 -0.1345055 -2.1134725e+38
0.80630559 -0.066565119 -0.13276595 -2.1134725e+38
0.80588704 -0.065222263 -0.1328619 -2.1001802e+38
0.80713791 -0.063730903 -0.13173342 -2.1400571e+38
0.80672044 -0.062391609 -0.13182913 -2.1799339e+38
0.81131774 -0.060628206 -0.12825003 -2.1932262e+38
0.81090367 -0.059299596 -0.12834498 -2.1932262e+38
0.81216329 -0.057836734 -0.12721448 -2.1932262e+38
0.8134253 -0.056381002 -0.12608345 -2.31286e+38
0.81385142 -0.054995954 -0.12556492 -2.3394453e+38
0.81344008 -0.053676244 -0.12565923 -2.6052873e+38
0.81470698 -0.052236542 -0.12452708 -2.7382097e+38
0.85765725 -0.044169616 -0.092374943 nan
0.85727644 -0.042947851 -0.092462249 nan
0.85858053 -0.041627485 -0.09132158 nan
0.85820085 -0.0404093 -0.091408633 nan
0.85613406 -0.03928259 -0.092724167 nan
0.87906843 -0.11252455 -0.088983551 -3.1776903e+38
0.87868708 -0.111301 -0.089070983 -3.1244176e+38
0.87830573 -0.11007748 -0.089158416 -3.0443513e+38
0.87792438 -0.10885394 -0.089245848 -2.8578962e+38
0.87754303 -0.10763041 -0.089333288 -2.6052881e+38
0.87716168 -0.10640687 -0.089420721 -2.3527342e+38
0.87678033 -0.10518333 -0.089508153 -2.299565e+38
0.81540424 -0.11159645 -0.13484071 -2.233103e+38
0.81416726 -0.11037561 -0.13554676 -2.2198108e+38
0.81374425 -0.10901851 -0.13564374 -2.1400571e+38
0.81169009 -0.10792324 -0.1369596 -2.1533494e+38
0.81126601 -0.10656258 -0.13705683 -2.1666416e+38
0.80920845 -0.10545662 -0.13837343 -2.1666416e+38
0.80878329 -0.1040924 -0.13847092 -2.1533494e+38
0.80754018 -0.10285196 -0.13917838 -2.1533494e+38
0.80711442 -0.10148595 -0.139276 -2.1533494e+38
0.80668867 -0.10011993 -0.13937362 -2.1666416e+38
0.80626291 -0.098753929 -0.13947123 -2.1666416e+38
0.80583715 -0.097387917 -0.13956885 -2.1666416e+38
0.80377018 -0.096251681 -0.14088762 -2.1666416e+38
0.80334336 -0.094882108 -0.14098549 -2.1666416e+38
0.80291647 -0.093512535 -0.14108336 -2.1666416e+38
0.80248958 -0.092142969 -0.14118123 -2.1666416e+38
0.80206275 -0.090773396 -0.1412791 -2.1533494e+38
0.80328262 -0.089191839 -0.14015454 -2.1400571e+38
0.80285686 -0.087825827 -0.14025216 -2.1134725e+38
0.80243111 -0.086459816 -0.14034978 -2.1134725e+38
0.80200535 -0.085093811 -0.14044738 -2.1001802e+38
0.80157954 -0.083727784 -0.140545 -2.1001802e+38
0.80198002 -0.082264699 -0.14003074 -2.1134725e+38
0.8015548 -0.080900453 -0.14012823 -2.1001802e+38
0.80278414 -0.079349183 -0.1390015 -2.1001802e+38
0.80401564 -0.077805027 -0.13787426 -2.1001802e+38
0.80442107 -0.076357946 -0.13735886 -2.086888e+38
0.80399865 -0.07500264 -0.13745572 -2.1001802e+38
0.80357623 -0.073647305 -0.13755256 -2.1001802e+38
0.80315381 -0.072291978 -0.13764942 -2.1267648e+38
0.80439252 -0.070770986 -0.13652052 -2.1001802e+38
0.80397123 -0.069419213 -0.13661712 -2.1267648e+38
0.80354989 -0.068067454 -0.13671371 -2.1267648e+38
0.80645764 -0.066405699 -0.13435729 -2.1267648e+38
0.80687135 -0.064985357 -0.13383999 -2.1267648e+38
0.80645281 -0.063642494 -0.13393596 -2.1400571e+38
0.81439394 -0.056147873 -0.12704596 -2.3926108e+38
0.81398207 -0.054826386 -0.1271404 -2.4989488e+38
0.85855281 -0.043954078 -0.093264818 nan
0.858172 -0.042732313 -0.093352132 nan
0.85947347 -0.041412577 -0.092208862 nan
0.85909379 -0.040194388 -0.092295915 nan
0.87953955 -0.11368599 -0.090396404 -3.0986676e+38
0.87996531 -0.1123087 -0.089874722 -3.0718744e+38
0.87958395 -0.11108515 -0.089962155 -3.1245742e+38
0.8792026 -0.10986163 -0.090049587 -3.0577998e+38
0.87882125 -0.10863809 -0.090137027 -3.044453e+38
0.8784399 -0.10741456 -0.09022446 -3.0446085e+38
0.87805855 -0.10619102 -0.090311892 -2.8851e+38
0.87848818 -0.10482619 -0.089789361 -2.711729e+38
0.87810737 -0.10360444 -0.089876667 -2.5521216e+38
0.815162 -0.1101362 -0.13653523 -2.1799339e+38
0.81311154 -0.10904387 -0.13785343 -2.0735957e+38
0.81105888 -0.10794441 -0.13917211 -2.086888e+38
0.81063366 -0.10658018 -0.13926959 -2.1533496e+38
0.8102085 -0.10521594 -0.13936709 -2.1533498e+38
0.80896723 -0.103977 -0.14007571 -2.1533494e+38
0.80854148 -0.10261098 -0.14017333 -2.1666416e+38
0.80811572 -0.10124496 -0.14027095 -2.1533494e+38
0.80605471 -0.10011881 -0.14159155 -2.1533494e+38
0.80562788 -0.09874922 -0.14168942 -2.1666416e+38
0.80520099 -0.097379647 -0.14178729 -2.1666416e+38
0.80477411 -0.096010067 -0.14188516 -2.1799339e+38
0.80434722 -0.094640493 -0.14198303 -2.1799339e+38
0.80392039 -0.09327092 -0.1420809 -2.1666416e+38
0.8034935 -0.091901347 -0.14217877 -2.1533494e+38
0.80306667 -0.090531781 -0.14227664 -2.1533494e+38
0.80263978 -0.089162208 -0.14237452 -2.1533494e+38
0.80221289 -0.08779262 -0.14247239 -2.1666416e+38
0.80178601 -0.086423054 -0.14257026 -2.1666416e+38
0.80135918 -0.085053481 -0.14266811 -2.1666416e+38
0.80093229 -0.083683893 -0.14276598 -2.1533494e+38
0.8005054 -0.082314335 -0.14286385 -2.1533494e+38
0.80172938 -0.080754779 -0.14173518 -2.1400571e+38
0.80212957 -0.079295546 -0.14121936 -2.086888e+38
0.80335742 -0.077748463 -0.14008979 -2.086888e+38
0.80458742 -0.07620851 -0.13895971 -2.1001802e+38
0.80416447 -0.074851401 -0.1390567 -2.1001802e+38
0.80374146 -0.073494293 -0.13915367 -2.1533494e+38
0.8033185 -0.072137177 -0.13925065 -2.1799339e+38
0.80372483 -0.070697546 -0.13873343 -2.1134725e+38
0.8049621 -0.069180734 -0.1376017 -2.1001802e+38
0.80454075 -0.067828976 -0.13769829 -2.1001802e+38
0.80411947 -0.066477217 -0.1377949 -2.1001802e+38
0.85944837 -0.04373854 -0.094154701 nan
0.86074615 -0.042415854 -0.093009092 nan
0.8603664 -0.041197669 -0.093096144 nan
0.88124353 -0.11331636 -0.090678468 -3.192806e+38
0.88166851 -0.11194117 -0.0901554 -3.0192768e+38
0.88128769 -0.11071942 -0.090242706 -3.0851667e+38
0.88009948 -0.10964577 -0.090940766 -3.0182887e+38
0.87971812 -0.10842223 -0.091028199 -3.1376557e+38
0.87933677 -0.1071987 -0.091115631 -3.2176694e+38
0.87895542 -0.10597517 -0.091203071 -3.2174106e+38
0.87938374 -0.10461065 -0.090679243 -3.1773263e+38
0.87900293 -0.10338891 -0.090766549 -2.8313126e+38
0.87862217 -0.10216714 -0.090853855 -2.5388269e+38
0.81453305 -0.11016449 -0.13874725 -2.2463953e+38
0.81248409 -0.10906796 -0.14006828 -2.086888e+38
0.81205887 -0.10770374 -0.14016576 -2.0470111e+38
0.81163365 -0.10633951 -0.14026324 -2.0735957e+38
0.81120849 -0.10497528 -0.14036073 -2.0735957e+38
0.80996859 -0.10373601 -0.14107066 -2.1400571e+38
0.80954278 -0.10236999 -0.14116828 -2.1799339e+38
0.80911702 -0.10100397 -0.1412659 -2.1932262e+38
0.80705863 -0.099877194 -0.14258909 -2.1932262e+38
0.80663174 -0.098507605 -0.14268696 -2.1666416e+38
0.80620492 -0.097138032 -0.14278483 -2.1799339e+38
0.80577803 -0.095768452 -0.1428827 -2.1799339e+38
0.80535114 -0.094398879 -0.14298058 -2.1799339e+38
0.80328608 -0.093250729 -0.14430533 -2.1799339e+38
0.80285805 -0.09187758 -0.14440346 -2.1666416e+38
0.80243009 -0.090504445 -0.14450158 -2.1533494e+38
0.80200213 -0.089131311 -0.14459971 -2.1533494e+38
0.80157411 -0.087758176 -0.14469783 -2.1799339e+38
0.80114615 -0.086385034 -0.14479595 -2.1799339e+38
0.80071819 -0.085011914 -0.14489408 -2.1400579e+38
0.80029017 -0.083638765 -0.1449922 -2.1134733e+38
0.79986221 -0.08226563 -0.14509033 -2.1001802e+38
0.80108249 -0.080703139 -0.14395927 -2.1267648e+38
0.8006556 -0.079333566 -0.14405714 -2.1666422e+38
0.80270439 -0.077690654 -0.1423105 -2.15335e+38
0.8039307 -0.076147757 -0.14117809 -2.1666416e+38
0.80350661 -0.074787088 -0.14127533 -2.1799339e+38
0.80308253 -0.073426418 -0.14137256 -2.1932262e+38
0.80265844 -0.072065741 -0.14146979 -2.1932262e+38
0.80389029 -0.070540652 -0.1403361 -2.1001802e+38
0.8042959 -0.069103122 -0.13981745 -2.0603034e+38
0.80553162 -0.067590505 -0.13868286 -2.0470111e+38
0.80511034 -0.066238746 -0.13877946 -2.0337188e+38
0.87284589 -0.056247048 -0.087921873 -2.4324874e+38
0.87247062 -0.055043112 -0.088007905 -2.5122417e+38
0.87209541 -0.053839173 -0.088093944 -2.8578402e+38
0.87172014 -0.052635223 -0.088179976 -3.0572252e+38
0.87134486 -0.051431272 -0.088266008 -3.24358e+38
0.87096965 -0.050227351 -0.088352039 nan
0.87059438 -0.049023397 -0.088438079 -3.3250025e+38
0.87021917 -0.047819447 -0.088524111 nan
0.88256407 -0.11172563 -0.091045275 -3.005986e+38
0.88218325 -0.11050388 -0.091132581 -3.0452912e+38
0.88099635 -0.10942992 -0.091831945 -3.0452393e+38
0.880615 -0.10820638 -0.091919377 -3.098092e+38
0.88023365 -0.10698285 -0.09200681 -3.0446617e+38
0.87985229 -0.10575932 -0.092094243 -3.084228e+38
0.87947094 -0.10453577 -0.092181683 -3.1242093e+38
0.87908959 -0.10331225 -0.092269115 -2.9913905e+38
0.87870824 -0.1020887 -0.092356548 -2.9516171e+38
0.81305885 -0.10746306 -0.14115942 -2.5788064e+38
0.81263369 -0.10609884 -0.1412569 -2.5255368e+38
0.81220847 -0.1047346 -0.14135438 -2.3926122e+38
0.81096989 -0.10349502 -0.14206561 -2.219811e+38
0.81054413 -0.102129 -0.14216323 -2.1932262e+38
0.81011832 -0.10076298 -0.14226085 -2.1533494e+38
0.80643249 -0.099874154 -0.14481485 -2.1533494e+38
0.80600452 -0.098501019 -0.14491297 -2.1001802e+38
0.8055765 -0.097127885 -0.1450111 -2.086888e+38
0.80514854 -0.09575475 -0.14510922 -2.0735957e+38
0.80472058 -0.094381601 -0.14520735 -2.0735957e+38
0.80429256 -0.093008481 -0.14530547 -2.086888e+38
0.8038646 -0.091635332 -0.14540359 -2.086888e+38
0.80343664 -0.090262204 -0.14550172 -2.086888e+38
0.80300862 -0.08888907 -0.14559984 -2.1134725e+38
0.80258065 -0.087515935 -0.14569797 -2.086888e+38
0.80215269 -0.086142786 -0.14579609 -2.1134725e+38
0.80172473 -0.084769666 -0.14589421 -2.0868892e+38
0.80129671 -0.083396517 -0.14599234 -2.0470121e+38
0.80086875 -0.082023382 -0.14609046 -2.0735957e+38
0.80208641 -0.080461517 -0.14495683 -2.1001802e+38
0.80165952 -0.079091944 -0.1450547 -2.1400587e+38
0.80288047 -0.07754077 -0.14392032 -2.1400587e+38
0.80327916 -0.076085746 -0.14340164 -2.1400587e+38
0.802854 -0.074721508 -0.14349912 -2.1533512e+38
0.80242878 -0.073357292 -0.14359662 -2.2463961e+38
0.8036558 -0.071825698 -0.14246085 -2.2995659e+38
0.80488509 -0.070301235 -0.14132456 -2.2862738e+38
0.80528933 -0.068864018 -0.14080462 -2.2729813e+38
0.80486691 -0.067508698 -0.14090146 -2.5521184e+38
0.87410361 -0.057238605 -0.088712744 -2.9113746e+38
0.87372839 -0.056034654 -0.088798776 -2.9248235e+38
0.87335312 -0.054830715 -0.088884816 -3.07156e+38
0.87297791 -0.053626779 -0.088970847 -3.13792e+38
0.87260264 -0.052422829 -0.089056879 -3.1912457e+38
0.87222737 -0.051218878 -0.089142919 -3.2847569e+38
0.87185216 -0.050014954 -0.08922895 -3.3781676e+38
0.87147689 -0.048811004 -0.089314982 -3.298524e+38
0.87110168 -0.047607053 -0.089401014 nan
0.88147026 -0.11058686 -0.093248941 -3.0189657e+38
0.88108832 -0.10936154 -0.0933365 -3.0322062e+38
0.88151187 -0.10799053 -0.092810549 -3.0185471e+38
0.88113052 -0.106767 -0.092897981 -2.9250839e+38
0.88074917 -0.10554346 -0.092985421 -2.9780451e+38
0.88036782 -0.10431992 -0.093072854 -3.0313706e+38
0.88079405 -0.10295783 -0.092546299 -3.0048891e+38
0.88202959 -0.10146249 -0.091405384 -3.0449219e+38
0.88245863 -0.10010929 -0.090878204 -3.1914509e+38
0.80658305 -0.096885636 -0.14601123 -2.0603034e+38
0.80615509 -0.095512502 -0.14610936 -1.9539652e+38
0.80409521 -0.094363064 -0.14743927 -1.9406729e+38
0.80366611 -0.092986383 -0.14753765 -1.9805497e+38
0.80323702 -0.091609672 -0.14763603 -1.9805497e+38
0.80280799 -0.090232976 -0.14773442 -1.9672574e+38
0.80237889 -0.08885628 -0.1478328 -1.993842e+38
0.8019498 -0.087479584 -0.14793117 -1.9406729e+38
0.80152071 -0.086102873 -0.14802955 -1.9406729e+38
0.80109161 -0.084726192 -0.14812793 -1.9805499e+38
0.80230325 -0.083154276 -0.14699247 -1.9672576e+38
0.80187529 -0.081781141 -0.1470906 -1.9539652e+38
0.80144727 -0.080408007 -0.14718872 -1.9672574e+38
0.80266345 -0.078850329 -0.14605223 -2.0470113e+38
0.80388176 -0.077299789 -0.14491527 -2.0603036e+38
0.80345601 -0.075933777 -0.14501287 -2.1666418e+38
0.80303025 -0.074567765 -0.14511049 -2.1932264e+38
0.80342877 -0.073116615 -0.14459027 -2.3394415e+38
0.80465323 -0.071585655 -0.1434519 -2.3527338e+38
0.80587983 -0.070061818 -0.14231302 -2.5388257e+38
0.87536138 -0.058230143 -0.089503616 -3.1369781e+38
0.87581426 -0.056953527 -0.088970959 -3.2436287e+38
0.87543958 -0.055751376 -0.089056864 -3.1775325e+38
0.87506491 -0.054549199 -0.08914277 -3.2976843e+38
0.87386042 -0.053414382 -0.089847751 -3.1648153e+38
0.87348515 -0.052210432 -0.089933783 -3.2582784e+38
0.8714481 -0.051134031 -0.091258481 -3.2986228e+38
0.8710717 -0.049926531 -0.091344774 -3.3120191e+38
0.87069535 -0.048719019 -0.091431059 -3.2588015e+38
0.87031901 -0.047511503 -0.091517352 nan
0.8819865 -0.10914537 -0.094228975 -3.0191724e+38
0.88240874 -0.10777467 -0.093701728 -3.0455979e+38
0.88202739 -0.10655115 -0.09378916 -2.9521867e+38
0.88164604 -0.10532761 -0.093876593 -2.9653767e+38
0.88126469 -0.10410407 -0.093964033 -2.9386364e+38
0.88168961 -0.10274229 -0.093436182 -2.9516682e+38
0.88292253 -0.10124759 -0.092292666 -2.9382717e+38
0.88335025 -0.099894702 -0.091764189 -3.0311605e+38
0.88297111 -0.098678291 -0.091851108 -3.0444006e+38
0.88681209 -0.089199826 -0.087527089 -3.0058249e+38
0.88643742 -0.087997675 -0.087612994 -3.0592543e+38
0.88568807 -0.08559335 -0.087784804 -2.9394185e+38
0.88531333 -0.084391177 -0.08787071 -2.9259144e+38
0.80381709 -0.089990109 -0.14873713 -2.8318321e+38
0.803388 -0.088613413 -0.14883551 -2.8317803e+38
0.80295891 -0.087236717 -0.14893389 -2.7785078e+38
0.80252981 -0.085860007 -0.14903228 -2.7518192e+38
0.8033098 -0.082912028 -0.14799261 -2.7917423e+38
0.80288178 -0.081538893 -0.14809074 -2.7916903e+38
0.80366737 -0.078608714 -0.14704977 -2.8050865e+38
0.87894362 -0.06395442 -0.089331128 -2.8452229e+38
0.87856895 -0.062752254 -0.089417033 -2.9248208e+38
0.87819421 -0.061550107 -0.089502938 -2.9648538e+38
0.87781954 -0.06034793 -0.089588851 -3.0443479e+38
0.8766191 -0.0592217 -0.090294488 -3.0576402e+38
0.87624389 -0.058017749 -0.09038052 -3.1779455e+38
0.87669545 -0.056741443 -0.089846566 -3.2447192e+38
0.87632078 -0.055539295 -0.089932472 -3.1648644e+38
0.8759461 -0.054337118 -0.090018384 -3.1382279e+38
0.87474293 -0.053201988 -0.090724654 -3.1918152e+38
0.87436765 -0.051998034 -0.090810694 -3.2851741e+38
0.87233317 -0.050921008 -0.092137977 -3.2586425e+38
0.87195683 -0.049713507 -0.092224263 -3.2986238e+38
0.87158048 -0.048505995 -0.092310555 -3.2587502e+38
0.88250279 -0.1077039 -0.095209002 -3.0189645e+38
0.88212085 -0.10647858 -0.095296562 -2.965587e+38
0.88173896 -0.10525327 -0.095384121 -2.97893e+38
0.88135707 -0.10402796 -0.095471688 -2.9122078e+38
0.88097513 -0.10280263 -0.095559247 -2.9117391e+38
0.88220441 -0.10130499 -0.094413362 -2.8717054e+38
0.88343579 -0.099814489 -0.093267001 -2.8981858e+38
0.8830561 -0.09859629 -0.093354054 -2.8314116e+38
0.88106203 -0.09763974 -0.094675288 -2.8978732e+38
0.88806802 -0.090189911 -0.088316783 -3.2320579e+38
0.88769329 -0.088987745 -0.088402689 -3.378116e+38
0.88731861 -0.087785594 -0.088488601 nan
0.88694394 -0.086583428 -0.088574506 nan
0.88656926 -0.085381269 -0.088660412 -3.3515329e+38
0.88619453 -0.084179096 -0.088746317 nan
0.88500655 -0.083088174 -0.08945071 nan
0.88463128 -0.081884228 -0.089536749 nan
0.88425606 -0.080680281 -0.089622781 nan
0.88469577 -0.079370454 -0.089089945 nan
0.88432109 -0.078168288 -0.08917585 -3.3916182e+38
