# .PCD v0.7 - Point Cloud Data file format
VERSION 0.7
FIELDS x y z rgb
SIZE 4 4 4 4
TYPE F F F F
COUNT 1 1 1 1
WIDTH 1018
HEIGHT 1
VIEWPOINT 0 0 0 1 0 0 0
POINTS 1018
DATA ascii
0.26246795 -0.074756838 0.64100003 nan
0.26366651 -0.074756838 0.64100003 nan
0.26486504 -0.074756838 0.64100003 nan
0.2660636 -0.074756838 0.64100003 nan
0.26726216 -0.074756838 0.64100003 nan
0.26846072 -0.074756838 0.64100003 nan
0.26965928 -0.074756838 0.64100003 nan
0.27085781 -0.074756838 0.64100003 nan
0.27205637 -0.074756838 0.64100003 nan
0.27325493 -0.074756838 0.64100003 nan
0.27445349 -0.074756838 0.64100003 nan
0.27565205 -0.074756838 0.64100003 nan
0.17544749 -0.078035668 0.68000001 nan
0.17645909 -0.077920906 0.67900002 nan
0.17694344 -0.07757663 0.67600006 nan
0.17794383 -0.077461876 0.67500001 nan
0.17840947 -0.077117592 0.67200005 nan
0.17913127 -0.076888084 0.67000002 nan
0.17957637 -0.076543808 0.66700006 nan
0.18055244 -0.076429047 0.66600001 nan
0.18097883 -0.07608477 0.66300005 nan
0.18194367 -0.075970016 0.66200006 -2.4333713e+38
0.18235137 -0.075625733 0.65900004 -2.7382097e+38
0.183305 -0.075510979 0.65800005 -2.8046711e+38
0.1842549 -0.075396225 0.65700001 -2.8046757e+38
0.18491873 -0.07516671 0.65500003 -2.751506e+38
0.18585926 -0.075051941 0.65400004 -2.6983343e+38
0.18679607 -0.074937187 0.65300006 -2.6717493e+38
0.18801706 -0.074937187 0.65300006 -2.6717491e+38
0.18894826 -0.074822433 0.65200001 -2.6451643e+38
0.18958405 -0.074592918 0.65000004 -2.6185822e+38
0.19050589 -0.074478157 0.64900005 -2.5787047e+38
0.19142398 -0.074363396 0.648 -2.5654121e+38
0.19233836 -0.074248642 0.64700001 -2.5388271e+38
0.19354813 -0.074248642 0.64700001 -2.525534e+38
0.19445689 -0.07413388 0.64600003 -2.525534e+38
0.19505902 -0.073904365 0.64400005 -2.5388255e+38
0.19595844 -0.073789604 0.64300001 -2.5388255e+38
0.19716072 -0.073789604 0.64300001 -2.5255332e+38
0.19836302 -0.073789604 0.64300001 -2.4989486e+38
0.19925494 -0.07367485 0.64200002 -2.5255332e+38
0.20045537 -0.07367485 0.64200002 -2.5255332e+38
0.20165579 -0.07367485 0.64200002 -2.5255332e+38
0.20285621 -0.07367485 0.64200002 -2.5255332e+38
0.20373879 -0.073560089 0.64100003 -2.5255332e+38
0.20493735 -0.073560089 0.64100003 -2.5255332e+38
0.2061359 -0.073560089 0.64100003 -2.5388265e+38
0.207011 -0.073445328 0.64000005 -2.5388267e+38
0.20755704 -0.073215812 0.63800001 -2.4723643e+38
0.20874998 -0.073215812 0.63800001 -2.4590718e+38
0.20961386 -0.073101059 0.63700002 -2.4590718e+38
0.21080492 -0.073101059 0.63700002 -2.4457795e+38
0.211996 -0.073101059 0.63700002 -2.4457795e+38
0.21318708 -0.073101059 0.63700002 -2.4590718e+38
0.21437815 -0.073101059 0.63700002 -2.4723663e+38
0.21556923 -0.073101059 0.63700002 -2.459074e+38
0.21676031 -0.073101059 0.63700002 -2.4457797e+38
0.21795137 -0.073101059 0.63700002 -2.4457795e+38
0.21948649 -0.073215812 0.63800001 -2.419195e+38
0.22067943 -0.073215812 0.63800001 -2.419195e+38
0.22187237 -0.073215812 0.63800001 -2.4457795e+38
0.22306532 -0.073215812 0.63800001 -2.4723641e+38
0.22425826 -0.073215812 0.63800001 -2.4989496e+38
0.2254512 -0.073215812 0.63800001 -2.5255348e+38
0.22855133 -0.073445328 0.64000005 -2.4723695e+38
0.23010698 -0.073560089 0.64100003 -2.459073e+38
0.23130554 -0.073560089 0.64100003 -2.4457795e+38
0.23286681 -0.07367485 0.64200002 -2.4457795e+38
0.23406723 -0.07367485 0.64200002 -2.4457795e+38
0.23563412 -0.073789604 0.64300001 -2.5255332e+38
0.23683642 -0.073789604 0.64300001 -2.56541e+38
0.23840891 -0.073904365 0.64400005 -2.55212e+38
0.23961307 -0.073904365 0.64400005 -2.5654131e+38
0.24081723 -0.073904365 0.64400005 -2.5521194e+38
0.24314882 -0.074248642 0.64700001 -2.5654117e+38
0.24473627 -0.074363396 0.648 -2.55212e+38
0.24594791 -0.074363396 0.648 -2.5919978e+38
0.24792242 -0.074592918 0.65000004 -2.6185869e+38
0.25028765 -0.074937187 0.65300006 -2.6185877e+38
0.26407784 -0.07367485 0.64200002 nan
0.26486504 -0.073560089 0.64100003 nan
0.26647869 -0.07367485 0.64200002 nan
0.2676791 -0.07367485 0.64200002 nan
0.26887953 -0.07367485 0.64200002 nan
0.27007994 -0.07367485 0.64200002 nan
0.27128038 -0.07367485 0.64200002 nan
0.27248079 -0.07367485 0.64200002 nan
0.27368122 -0.07367485 0.64200002 nan
0.27488163 -0.07367485 0.64200002 nan
0.27565205 -0.073560089 0.64100003 nan
0.27685058 -0.073560089 0.64100003 nan
0.17645909 -0.076653205 0.67900002 nan
0.17694344 -0.076314531 0.67600006 nan
0.17820744 -0.076314531 0.67600006 nan
0.17894046 -0.076088749 0.67400002 nan
0.17939864 -0.075750075 0.671 nan
0.17984559 -0.075411402 0.66800004 nan
0.18055244 -0.075185619 0.66600001 nan
0.18125179 -0.074959837 0.66400003 nan
0.18194367 -0.074734055 0.66200006 -2.4866449e+38
0.18235137 -0.074395373 0.65900004 -2.8186383e+38
0.183305 -0.07428249 0.65800005 -2.7518654e+38
0.1842549 -0.074169599 0.65700001 -2.77809e+38
0.18491873 -0.073943816 0.65500003 -2.711628e+38
0.18585926 -0.073830917 0.65400004 -2.7382105e+38
0.18679607 -0.073718034 0.65300006 -2.7382105e+38
0.18801706 -0.073718034 0.65300006 -2.658456e+38
0.18894826 -0.073605143 0.65200001 -2.6717483e+38
0.18958405 -0.07337936 0.65000004 -2.6185824e+38
0.19050589 -0.073266469 0.64900005 -2.6052899e+38
0.19171941 -0.073266469 0.64900005 -2.5787031e+38
0.19233836 -0.073040687 0.64700001 -2.5654104e+38
0.19354813 -0.073040687 0.64700001 -2.5521206e+38
0.19445689 -0.072927788 0.64600003 -2.5388281e+38
0.19566479 -0.072927788 0.64600003 -2.5388257e+38
0.19626318 -0.072702013 0.64400005 -2.5388255e+38
0.19716072 -0.072589114 0.64300001 -2.4989486e+38
0.1986715 -0.072702013 0.64400005 -2.4989486e+38
0.19956531 -0.072589114 0.64300001 -2.4989486e+38
0.20076761 -0.072589114 0.64300001 -2.4989486e+38
0.20196991 -0.072589114 0.64300001 -2.4989486e+38
0.20285621 -0.072476231 0.64200002 -2.4989486e+38
0.20405664 -0.072476231 0.64200002 -2.4989486e+38
0.20525706 -0.072476231 0.64200002 -2.4989486e+38
0.2061359 -0.072363332 0.64100003 -2.4989486e+38
0.20733446 -0.072363332 0.64100003 -2.4989486e+38
0.2082077 -0.072250441 0.64000005 -2.4457795e+38
0.20940438 -0.072250441 0.64000005 -2.4590718e+38
0.20994292 -0.072024658 0.63800001 -2.4457795e+38
0.21113586 -0.072024658 0.63800001 -2.4457795e+38
0.21232882 -0.072024658 0.63800001 -2.3793181e+38
0.21352176 -0.072024658 0.63800001 -2.3793181e+38
0.21471471 -0.072024658 0.63800001 -2.4324872e+38
0.21556923 -0.071911775 0.63700002 -2.4590718e+38
0.21710059 -0.072024658 0.63800001 -2.4457795e+38
0.21829353 -0.072024658 0.63800001 -2.4590718e+38
0.21948649 -0.072024658 0.63800001 -2.4059043e+38
0.22137122 -0.072250441 0.64000005 -2.3793197e+38
0.2225679 -0.072250441 0.64000005 -2.4457799e+38
0.22376458 -0.072250441 0.64000005 -2.4457795e+38
0.22496127 -0.072250441 0.64000005 -2.419195e+38
0.22615795 -0.072250441 0.64000005 -2.4590722e+38
0.22735465 -0.072250441 0.64000005 -2.4723661e+38
0.22890843 -0.072363332 0.64100003 -2.4457815e+38
0.23046596 -0.072476231 0.64200002 -2.4191954e+38
0.23166639 -0.072476231 0.64200002 -2.419195e+38
0.23322953 -0.072589114 0.64300001 -2.4723641e+38
0.23443183 -0.072589114 0.64300001 -2.5255332e+38
0.23563412 -0.072589114 0.64300001 -2.5388255e+38
0.23720475 -0.072702013 0.64400005 -2.5388255e+38
0.23840891 -0.072702013 0.64400005 -2.5521188e+38
0.24035722 -0.072927788 0.64600003 -2.5388267e+38
0.24156512 -0.072927788 0.64600003 -2.5122411e+38
0.24314882 -0.073040687 0.64700001 -2.5255336e+38
0.24473627 -0.07315357 0.648 -2.5388275e+38
0.24632746 -0.073266469 0.64900005 -2.5388279e+38
0.24868524 -0.073605143 0.65200001 -2.5919997e+38
0.25028765 -0.073718034 0.65300006 -2.618585e+38
0.26527825 -0.072476231 0.64200002 nan
0.26647869 -0.072476231 0.64200002 nan
0.2676791 -0.072476231 0.64200002 nan
0.26887953 -0.072476231 0.64200002 nan
0.27007994 -0.072476231 0.64200002 nan
0.27128038 -0.072476231 0.64200002 nan
0.27248079 -0.072476231 0.64200002 nan
0.27368122 -0.072476231 0.64200002 nan
0.27488163 -0.072476231 0.64200002 nan
0.27608207 -0.072476231 0.64200002 nan
0.27685058 -0.072363332 0.64100003 nan
0.27674782 -0.072024658 0.63800001 nan
0.17645909 -0.075385503 0.67900002 nan
0.17694344 -0.075052433 0.67600006 nan
0.17820744 -0.075052433 0.67600006 nan
0.17920595 -0.074941412 0.67500001 nan
0.17913127 -0.074386291 0.67000002 nan
0.17984559 -0.074164242 0.66800004 nan
0.18055244 -0.073942192 0.66600001 nan
0.18125179 -0.073720142 0.66400003 nan
0.18194367 -0.073498093 0.66200006 -2.5532607e+38
0.18290478 -0.073387064 0.66100001 -2.7120405e+38
0.183305 -0.073053993 0.65800005 -2.7520212e+38
0.1842549 -0.072942972 0.65700001 -2.7913831e+38
0.18491873 -0.072720923 0.65500003 -2.6850432e+38
0.18585926 -0.072609894 0.65400004 -2.7249178e+38
0.18708213 -0.072609894 0.65400004 -2.7515028e+38
0.18801706 -0.072498873 0.65300006 -2.6451637e+38
0.18894826 -0.072387852 0.65200001 -2.6318714e+38
0.18958405 -0.072165802 0.65000004 -2.6451655e+38
0.19079943 -0.072165802 0.65000004 -2.6451655e+38
0.19171941 -0.072054781 0.64900005 -2.658456e+38
0.19233836 -0.071832731 0.64700001 -2.6052869e+38
0.19354813 -0.071832731 0.64700001 -2.5654147e+38
0.19445689 -0.071721703 0.64600003 -2.5388299e+38
0.19566479 -0.071721703 0.64600003 -2.5255334e+38
0.1968727 -0.071721703 0.64600003 -2.4989486e+38
0.19746734 -0.071499661 0.64400005 -2.4989486e+38
0.1986715 -0.071499661 0.64400005 -2.4856564e+38
0.19987567 -0.071499661 0.64400005 -2.4989486e+38
0.20107983 -0.071499661 0.64400005 -2.4989486e+38
0.20196991 -0.071388632 0.64300001 -2.4989486e+38
0.20317219 -0.071388632 0.64300001 -2.4989486e+38
0.20405664 -0.071277611 0.64200002 -2.4856564e+38
0.20525706 -0.071277611 0.64200002 -2.4856564e+38
0.20645748 -0.071277611 0.64200002 -2.4856564e+38
0.20733446 -0.071166582 0.64100003 -2.4856564e+38
0.2082077 -0.071055561 0.64000005 -2.4856564e+38
0.20940438 -0.071055561 0.64000005 -2.4856564e+38
0.21060106 -0.071055561 0.64000005 -2.4457795e+38
0.21179774 -0.071055561 0.64000005 -2.4324872e+38
0.21299443 -0.071055561 0.64000005 -2.4457795e+38
0.21419111 -0.071055561 0.64000005 -2.4457795e+38
0.21538779 -0.071055561 0.64000005 -2.4324872e+38
0.21590765 -0.070833504 0.63800001 -2.4457795e+38
0.21778117 -0.071055561 0.64000005 -2.4457795e+38
0.21897785 -0.071055561 0.64000005 -2.4590718e+38
0.22017454 -0.071055561 0.64000005 -2.512244e+38
0.2217171 -0.071166582 0.64100003 -2.4723669e+38
0.22291566 -0.071166582 0.64100003 -2.4590722e+38
0.22376458 -0.071055561 0.64000005 -2.4590718e+38
0.22531277 -0.071166582 0.64100003 -2.4590724e+38
0.22651131 -0.071166582 0.64100003 -2.4590724e+38
0.22770987 -0.071166582 0.64100003 -2.4590718e+38
0.22926554 -0.071277611 0.64200002 -2.4457795e+38
0.23046596 -0.071277611 0.64200002 -2.4457795e+38
0.23202725 -0.071388632 0.64300001 -2.4457795e+38
0.23322953 -0.071388632 0.64300001 -2.4723641e+38
0.23443183 -0.071388632 0.64300001 -2.4723641e+38
0.23600058 -0.071499661 0.64400005 -2.5255332e+38
0.23720475 -0.071499661 0.64400005 -2.5388255e+38
0.23914932 -0.071721703 0.64600003 -2.5388255e+38
0.24035722 -0.071721703 0.64600003 -2.5521182e+38
0.24193905 -0.071832731 0.64700001 -2.5388259e+38
0.24352463 -0.071943752 0.648 -2.5388261e+38
0.24511395 -0.072054781 0.64900005 -2.5388275e+38
0.24746612 -0.072387852 0.65200001 -2.5388279e+38
0.24906665 -0.072498873 0.65300006 -2.5787047e+38
0.25067094 -0.072609894 0.65400004 -2.5787047e+38
0.26569146 -0.071388632 0.64300001 nan
0.26647869 -0.071277611 0.64200002 nan
0.2676791 -0.071277611 0.64200002 nan
0.26887953 -0.071277611 0.64200002 nan
0.27007994 -0.071277611 0.64200002 nan
0.27128038 -0.071277611 0.64200002 nan
0.27248079 -0.071277611 0.64200002 nan
0.27368122 -0.071277611 0.64200002 nan
0.27488163 -0.071277611 0.64200002 nan
0.27608207 -0.071277611 0.64200002 nan
0.27728248 -0.071277611 0.64200002 nan
0.27848291 -0.071277611 0.64200002 nan
0.17645909 -0.074117802 0.67900002 nan
0.17746694 -0.074008651 0.67800003 nan
0.17820744 -0.073790334 0.67600006 nan
0.17947143 -0.073790334 0.67600006 nan
0.17939864 -0.073244549 0.671 nan
0.17984559 -0.072917074 0.66800004 nan
0.18082353 -0.072807923 0.66700006 nan
0.18179774 -0.072698757 0.66600001 nan
0.18221852 -0.072371289 0.66300005 -2.5128125e+38
0.18318149 -0.072262138 0.66200006 -2.6452156e+38
0.18358357 -0.071934655 0.65900004 -2.8051905e+38
0.18453534 -0.071825504 0.65800005 -2.8046755e+38
0.18491873 -0.071498029 0.65500003 -2.6983359e+38
0.18614346 -0.071498029 0.65500003 -2.6717485e+38
0.18708213 -0.07138887 0.65400004 -2.6717483e+38
0.18801706 -0.071279719 0.65300006 -2.6451668e+38
0.18923806 -0.071279719 0.65300006 -2.6451668e+38
0.19016738 -0.071170561 0.65200001 -2.6451649e+38
0.19079943 -0.070952244 0.65000004 -2.6451649e+38
0.19171941 -0.070843093 0.64900005 -2.6185798e+38
0.19263563 -0.070733927 0.648 -2.6052873e+38
0.19354813 -0.070624776 0.64700001 -2.5787033e+38
0.19475791 -0.070624776 0.64700001 -2.5654106e+38
0.19596767 -0.070624776 0.64700001 -2.5255332e+38
0.1968727 -0.07051561 0.64600003 -2.4856564e+38
0.1980806 -0.07051561 0.64600003 -2.4856564e+38
0.1986715 -0.070297301 0.64400005 -2.4723641e+38
0.20049641 -0.07051561 0.64600003 -2.4856564e+38
0.20170431 -0.07051561 0.64600003 -2.4989486e+38
0.20228401 -0.070297301 0.64400005 -2.4989486e+38
0.20348817 -0.070297301 0.64400005 -2.4856564e+38
0.20437449 -0.070188142 0.64300001 -2.4856564e+38
0.20557678 -0.070188142 0.64300001 -2.4856564e+38
0.20645748 -0.070078991 0.64200002 -2.4856564e+38
0.2076579 -0.070078991 0.64200002 -2.4723641e+38
0.208533 -0.069969825 0.64100003 -2.4723641e+38
0.20973156 -0.069969825 0.64100003 -2.4856564e+38
0.21060106 -0.069860674 0.64000005 -2.4856564e+38
0.21179774 -0.069860674 0.64000005 -2.4856564e+38
0.21299443 -0.069860674 0.64000005 -2.4457795e+38
0.21419111 -0.069860674 0.64000005 -2.4457795e+38
0.21538779 -0.069860674 0.64000005 -2.4457795e+38
0.21658447 -0.069860674 0.64000005 -2.4324872e+38
0.21812144 -0.069969825 0.64100003 -2.4324872e+38
0.21932 -0.069969825 0.64100003 -2.4457795e+38
0.22051854 -0.069969825 0.64100003 -2.4590736e+38
0.2217171 -0.069969825 0.64100003 -2.4191966e+38
0.22291566 -0.069969825 0.64100003 -2.4457797e+38
0.22411421 -0.069969825 0.64100003 -2.4457795e+38
0.22531277 -0.069969825 0.64100003 -2.4856564e+38
0.22651131 -0.069969825 0.64100003 -2.4856564e+38
0.22770987 -0.069969825 0.64100003 -2.4856564e+38
0.22926554 -0.070078991 0.64200002 -2.4856564e+38
0.23082495 -0.070188142 0.64300001 -2.4856564e+38
0.23202725 -0.070188142 0.64300001 -2.4856564e+38
0.23322953 -0.070188142 0.64300001 -2.4590718e+38
0.23479642 -0.070297301 0.64400005 -2.4457795e+38
0.23600058 -0.070297301 0.64400005 -2.4856564e+38
0.23794141 -0.07051561 0.64600003 -2.4989486e+38
0.23951951 -0.070624776 0.64700001 -2.4989486e+38
0.24072927 -0.070624776 0.64700001 -2.5255336e+38
0.24231298 -0.070733927 0.648 -2.5255336e+38
0.24390045 -0.070843093 0.64900005 -2.5388261e+38
0.24624699 -0.071170561 0.65200001 -2.5388275e+38
0.24784566 -0.071279719 0.65300006 -2.5521204e+38
0.24906665 -0.071279719 0.65300006 -2.5521216e+38
0.25067094 -0.07138887 0.65400004 -2.4856598e+38
0.26689374 -0.070188142 0.64300001 nan
0.26809603 -0.070188142 0.64300001 nan
0.26887953 -0.070078991 0.64200002 nan
0.27007994 -0.070078991 0.64200002 nan
0.27128038 -0.070078991 0.64200002 nan
0.27248079 -0.070078991 0.64200002 nan
0.27368122 -0.070078991 0.64200002 nan
0.27488163 -0.070078991 0.64200002 nan
0.27608207 -0.070078991 0.64200002 nan
0.27728248 -0.070078991 0.64200002 nan
0.17645909 -0.072850108 0.67900002 nan
0.17746694 -0.07274282 0.67800003 nan
0.17820744 -0.072528236 0.67600006 nan
0.17947143 -0.072528236 0.67600006 nan
0.179666 -0.072099067 0.67200005 nan
0.17984559 -0.071669914 0.66800004 nan
0.18082353 -0.071562625 0.66700006 nan
0.18179774 -0.07145533 0.66600001 -3.2596347e+38
0.18221852 -0.071133465 0.66300005 -2.5123997e+38
0.18318149 -0.071026176 0.66200006 -2.631872e+38
0.18414074 -0.07091888 0.66100001 -2.7652638e+38
0.18481578 -0.070704296 0.65900004 -2.7384723e+38
0.18576568 -0.070597008 0.65800005 -2.6584578e+38
0.18614346 -0.070275143 0.65500003 -2.6451653e+38
0.18736818 -0.070275143 0.65500003 -2.6451653e+38
0.18830499 -0.070167847 0.65400004 -2.6717533e+38
0.18952785 -0.070167847 0.65400004 -2.6451686e+38
0.19016738 -0.06995327 0.65200001 -2.6451651e+38
0.19138651 -0.06995327 0.65200001 -2.6451649e+38
0.19201481 -0.069738686 0.65000004 -2.6185792e+38
0.19263563 -0.069524109 0.648 -2.5787023e+38
0.19384727 -0.069524109 0.648 -2.5521178e+38
0.19475791 -0.069416821 0.64700001 -2.56541e+38
0.19596767 -0.069416821 0.64700001 -2.5255332e+38
0.1968727 -0.069309525 0.64600003 -2.5255332e+38
0.1980806 -0.069309525 0.64600003 -2.4989486e+38
0.1986715 -0.069094948 0.64400005 -2.4856564e+38
0.20049641 -0.069309525 0.64600003 -2.4856564e+38
0.20170431 -0.069309525 0.64600003 -2.4856564e+38
0.20291221 -0.069309525 0.64600003 -2.4856564e+38
0.20348817 -0.069094948 0.64400005 -2.4723641e+38
0.20469233 -0.069094948 0.64400005 -2.4590718e+38
0.20557678 -0.068987653 0.64300001 -2.4590718e+38
0.20677908 -0.068987653 0.64300001 -2.4856564e+38
0.2076579 -0.068880364 0.64200002 -2.4723641e+38
0.20885833 -0.068880364 0.64200002 -2.4856564e+38
0.20973156 -0.068773076 0.64100003 -2.4856564e+38
0.21093012 -0.068773076 0.64100003 -2.4989486e+38
0.21212867 -0.068773076 0.64100003 -2.4989486e+38
0.21332723 -0.068773076 0.64100003 -2.4457795e+38
0.21452577 -0.068773076 0.64100003 -2.4457795e+38
0.21572433 -0.068773076 0.64100003 -2.4457795e+38
0.21692289 -0.068773076 0.64100003 -2.4457795e+38
0.21812144 -0.068773076 0.64100003 -2.419195e+38
0.21932 -0.068773076 0.64100003 -2.4457797e+38
0.22051854 -0.068773076 0.64100003 -2.459072e+38
0.2217171 -0.068773076 0.64100003 -2.4457795e+38
0.22291566 -0.068773076 0.64100003 -2.4324872e+38
0.22411421 -0.068773076 0.64100003 -2.4457795e+38
0.22531277 -0.068773076 0.64100003 -2.4856564e+38
0.22651131 -0.068773076 0.64100003 -2.4723641e+38
0.22770987 -0.068773076 0.64100003 -2.4324872e+38
0.22962266 -0.068987653 0.64300001 -2.4324872e+38
0.23082495 -0.068987653 0.64300001 -2.4457795e+38
0.23238809 -0.069094948 0.64400005 -2.4457795e+38
0.23359226 -0.069094948 0.64400005 -2.4457795e+38
0.23552561 -0.069309525 0.64600003 -2.4590718e+38
0.23673351 -0.069309525 0.64600003 -2.4989486e+38
0.23794141 -0.069309525 0.64600003 -2.4989486e+38
0.23951951 -0.069416821 0.64700001 -2.5255332e+38
0.24072927 -0.069416821 0.64700001 -2.5255332e+38
0.24231298 -0.069524109 0.648 -2.5255336e+38
0.24427626 -0.069738686 0.65000004 -2.5388261e+38
0.24624699 -0.06995327 0.65200001 -2.5787043e+38
0.24784566 -0.070060559 0.65300006 -2.6052895e+38
0.24906665 -0.070060559 0.65300006 -2.605293e+38
0.25067094 -0.070167847 0.65400004 -2.5122466e+38
0.26809603 -0.068987653 0.64300001 nan
0.26887953 -0.068880364 0.64200002 nan
0.27007994 -0.068880364 0.64200002 nan
0.27128038 -0.068880364 0.64200002 nan
0.27248079 -0.068880364 0.64200002 nan
0.27368122 -0.068880364 0.64200002 nan
0.27488163 -0.068880364 0.64200002 nan
0.27608207 -0.068880364 0.64200002 nan
0.27728248 -0.068880364 0.64200002 nan
0.17645909 -0.071582407 0.67900002 nan
0.17746694 -0.071476981 0.67800003 nan
0.17820744 -0.071266137 0.67600006 nan
0.17920595 -0.071160719 0.67500001 nan
0.17939864 -0.070739016 0.671 nan
0.17984559 -0.070422754 0.66800004 nan
0.18082353 -0.070317328 0.66700006 nan
0.18179774 -0.070211902 0.66600001 -3.2327338e+38
0.18221852 -0.069895633 0.66300005 -2.5122411e+38
0.18318149 -0.069790214 0.66200006 -2.698334e+38
0.18414074 -0.069684789 0.66100001 -2.75166e+38
0.18481578 -0.069473937 0.65900004 -2.6984401e+38
0.18576568 -0.069368519 0.65800005 -2.6318741e+38
0.18671185 -0.069263101 0.65700001 -2.6451655e+38
0.18736818 -0.069052249 0.65500003 -2.6451655e+38
0.18859293 -0.069052249 0.65500003 -2.6717519e+38
0.18952785 -0.068946823 0.65400004 -2.6451674e+38
0.19045904 -0.068841398 0.65300006 -2.6451649e+38
0.19138651 -0.068735979 0.65200001 -2.6185802e+38
0.19201481 -0.068525136 0.65000004 -2.6318718e+38
0.19293292 -0.06841971 0.64900005 -2.5787023e+38
0.19414642 -0.06841971 0.64900005 -2.5787023e+38
0.19505891 -0.068314284 0.648 -2.6052869e+38
0.19596767 -0.068208866 0.64700001 -2.5919958e+38
0.19717745 -0.068208866 0.64700001 -2.5521184e+38
0.19838722 -0.068208866 0.64700001 -2.4723641e+38
0.1992885 -0.068103433 0.64600003 -2.4723641e+38
0.20049641 -0.068103433 0.64600003 -2.4856564e+38
0.20170431 -0.068103433 0.64600003 -2.4723641e+38
0.20291221 -0.068103433 0.64600003 -2.4590718e+38
0.20412011 -0.068103433 0.64600003 -2.4324872e+38
0.20532802 -0.068103433 0.64600003 -2.3926104e+38
0.2058965 -0.067892596 0.64400005 -2.4059027e+38
0.20677908 -0.06778717 0.64300001 -2.4324872e+38
0.20798136 -0.06778717 0.64300001 -2.4324872e+38
0.20885833 -0.067681745 0.64200002 -2.4723641e+38
0.20973156 -0.067576319 0.64100003 -2.4856564e+38
0.21093012 -0.067576319 0.64100003 -2.4590736e+38
0.21212867 -0.067576319 0.64100003 -2.4590738e+38
0.21332723 -0.067576319 0.64100003 -2.4457797e+38
0.21452577 -0.067576319 0.64100003 -2.4457795e+38
0.21572433 -0.067576319 0.64100003 -2.4457795e+38
0.21692289 -0.067576319 0.64100003 -2.4324872e+38
0.21812144 -0.067576319 0.64100003 -2.459072e+38
0.21932 -0.067576319 0.64100003 -2.459072e+38
0.22051854 -0.067576319 0.64100003 -2.4590724e+38
0.2217171 -0.067576319 0.64100003 -2.4723649e+38
0.22291566 -0.067576319 0.64100003 -2.4723663e+38
0.22411421 -0.067576319 0.64100003 -2.4723665e+38
0.22531277 -0.067576319 0.64100003 -2.4723645e+38
0.22686468 -0.067681745 0.64200002 -2.4723641e+38
0.22806512 -0.067681745 0.64200002 -2.4723641e+38
0.22962266 -0.06778717 0.64300001 -2.4723641e+38
0.23118393 -0.067892596 0.64400005 -2.4457795e+38
0.2331098 -0.068103433 0.64600003 -2.4457795e+38
0.23431771 -0.068103433 0.64600003 -2.4856564e+38
0.23552561 -0.068103433 0.64600003 -2.4856564e+38
0.23673351 -0.068103433 0.64600003 -2.5122409e+38
0.23830974 -0.068208866 0.64700001 -2.5388255e+38
0.23951951 -0.068208866 0.64700001 -2.5122409e+38
0.24110134 -0.068314284 0.648 -2.5255336e+38
0.24268694 -0.06841971 0.64900005 -2.5388261e+38
0.24502787 -0.068735979 0.65200001 -2.5388261e+38
0.24624699 -0.068735979 0.65200001 -2.5122427e+38
0.24784566 -0.068841398 0.65300006 -2.5388279e+38
0.24906665 -0.068841398 0.65300006 -2.5787066e+38
0.25067094 -0.068946823 0.65400004 -2.4590746e+38
0.25189379 -0.068946823 0.65400004 -2.392611e+38
0.26809603 -0.06778717 0.64300001 nan
0.26887953 -0.067681745 0.64200002 nan
0.27007994 -0.067681745 0.64200002 nan
0.27128038 -0.067681745 0.64200002 nan
0.27248079 -0.067681745 0.64200002 nan
0.27368122 -0.067681745 0.64200002 nan
0.27488163 -0.067681745 0.64200002 nan
0.27608207 -0.067681745 0.64200002 nan
0.27728248 -0.067681745 0.64200002 nan
0.27848291 -0.067681745 0.64200002 nan
0.17873468 -0.07021115 0.67800003 nan
0.18000242 -0.07021115 0.67800003 nan
0.179666 -0.069589809 0.67200005 nan
0.18038405 -0.069382705 0.67000002 nan
0.18082353 -0.069072038 0.66700006 -3.3143666e+38
0.1820707 -0.069072038 0.66700006 -3.0320022e+38
0.18304303 -0.068968475 0.66600001 -2.5920005e+38
0.18345821 -0.068657808 0.66300005 -2.711833e+38
0.1844193 -0.068554252 0.66200006 -2.778554e+38
0.18565713 -0.068554252 0.66200006 -2.7249728e+38
0.18661264 -0.068450689 0.66100001 -2.6584586e+38
0.18671185 -0.068036474 0.65700001 -2.7116255e+38
0.18794031 -0.068036474 0.65700001 -2.7382105e+38
0.18859293 -0.067829356 0.65500003 -2.7249194e+38
0.18981765 -0.067829356 0.65500003 -2.6983347e+38
0.19045904 -0.067622244 0.65300006 -2.7116253e+38
0.19168004 -0.067622244 0.65300006 -2.6983328e+38
0.19260563 -0.067518689 0.65200001 -2.6185792e+38
0.1932302 -0.067311577 0.65000004 -2.5919946e+38
0.19444558 -0.067311577 0.65000004 -2.6052869e+38
0.19535995 -0.067208022 0.64900005 -2.6185792e+38
0.19627056 -0.067104459 0.648 -2.5787056e+38
0.19717745 -0.067000911 0.64700001 -2.5255356e+38
0.19838722 -0.067000911 0.64700001 -2.4989488e+38
0.199597 -0.067000911 0.64700001 -2.4856564e+38
0.20080677 -0.067000911 0.64700001 -2.4856564e+38
0.20201655 -0.067000911 0.64700001 -2.4856564e+38
0.20322631 -0.067000911 0.64700001 -2.4723641e+38
0.20443609 -0.067000911 0.64700001 -2.4723641e+38
0.20532802 -0.066897348 0.64600003 -2.4723641e+38
0.20653592 -0.066897348 0.64600003 -2.4723641e+38
0.20710066 -0.066690244 0.64400005 -2.4324872e+38
0.20830482 -0.066690244 0.64400005 -2.4324872e+38
0.20918366 -0.066586681 0.64300001 -2.4723641e+38
0.21005875 -0.066483125 0.64200002 -2.4989486e+38
0.21125917 -0.066483125 0.64200002 -2.5388287e+38
0.21245959 -0.066483125 0.64200002 -2.4989519e+38
0.21366003 -0.066483125 0.64200002 -2.5388257e+38
0.21486045 -0.066483125 0.64200002 -2.5255332e+38
0.21606088 -0.066483125 0.64200002 -2.4723641e+38
0.2172613 -0.066483125 0.64200002 -2.4324872e+38
0.21846172 -0.066483125 0.64200002 -2.4457795e+38
0.21966214 -0.066483125 0.64200002 -2.4590718e+38
0.22086257 -0.066483125 0.64200002 -2.4590724e+38
0.22206299 -0.066483125 0.64200002 -2.4989498e+38
0.22326341 -0.066483125 0.64200002 -2.5521246e+38
0.22446384 -0.066483125 0.64200002 -2.512248e+38
0.22566426 -0.066483125 0.64200002 -2.4723657e+38
0.22686468 -0.066483125 0.64200002 -2.4590724e+38
0.22842036 -0.066586681 0.64300001 -2.4457795e+38
0.230694 -0.066897348 0.64600003 -2.4457795e+38
0.2319019 -0.066897348 0.64600003 -2.4457795e+38
0.23347065 -0.067000911 0.64700001 -2.4590718e+38
0.23468041 -0.067000911 0.64700001 -2.4723641e+38
0.23589019 -0.067000911 0.64700001 -2.4723641e+38
0.23709996 -0.067000911 0.64700001 -2.5122409e+38
0.23867805 -0.067104459 0.648 -2.5255332e+38
0.2398897 -0.067104459 0.648 -2.5388255e+38
0.24147342 -0.067208022 0.64900005 -2.5654104e+38
0.24380876 -0.067518689 0.65200001 -2.5388261e+38
0.24540368 -0.067622244 0.65300006 -2.5388261e+38
0.24700235 -0.0677258 0.65400004 -2.525535e+38
0.24822521 -0.0677258 0.65400004 -2.5388277e+38
0.24944808 -0.0677258 0.65400004 -2.5388267e+38
0.25067094 -0.0677258 0.65400004 -2.4723643e+38
0.25189379 -0.0677258 0.65400004 -2.4059027e+38
0.26929834 -0.066586681 0.64300001 nan
0.27050063 -0.066586681 0.64300001 nan
0.27170292 -0.066586681 0.64300001 nan
0.2729052 -0.066586681 0.64300001 nan
0.27453381 -0.066690244 0.64400005 nan
0.2753098 -0.066586681 0.64300001 nan
0.27651209 -0.066586681 0.64300001 nan
0.2781463 -0.066690244 0.64400005 nan
0.27935046 -0.066690244 0.64400005 nan
0.17873468 -0.068945318 0.67800003 nan
0.18000242 -0.068945318 0.67800003 nan
0.179666 -0.068335176 0.67200005 nan
0.18038405 -0.068131804 0.67000002 nan
0.18109463 -0.067928426 0.66800004 -3.074217e+38
0.1820707 -0.06782674 0.66700006 -2.9655327e+38
0.18304303 -0.067725047 0.66600001 -2.6720085e+38
0.18373491 -0.067521669 0.66400003 -2.7117843e+38
0.1846979 -0.067419976 0.66300005 -2.6850953e+38
0.18565713 -0.06731829 0.66200006 -2.7382127e+38
0.18661264 -0.067216597 0.66100001 -2.6983351e+38
0.18699603 -0.066911533 0.65800005 -2.724919e+38
0.18794031 -0.066809848 0.65700001 -2.7515042e+38
0.18859293 -0.066606462 0.65500003 -2.7249192e+38
0.18981765 -0.066606462 0.65500003 -2.6983345e+38
0.1907507 -0.066504769 0.65400004 -2.7116261e+38
0.19168004 -0.066403084 0.65300006 -2.7116261e+38
0.19260563 -0.066301398 0.65200001 -2.6185792e+38
0.19382475 -0.066301398 0.65200001 -2.5787023e+38
0.19444558 -0.066098019 0.65000004 -2.56541e+38
0.19535995 -0.065996334 0.64900005 -2.56541e+38
0.19657345 -0.065996334 0.64900005 -2.5255342e+38
0.1974822 -0.065894641 0.648 -2.4989494e+38
0.19869384 -0.065894641 0.648 -2.4590718e+38
0.199597 -0.065792955 0.64700001 -2.4590718e+38
0.20080677 -0.065792955 0.64700001 -2.4856564e+38
0.20201655 -0.065792955 0.64700001 -2.4723641e+38
0.20322631 -0.065792955 0.64700001 -2.4856564e+38
0.20443609 -0.065792955 0.64700001 -2.4723641e+38
0.20564586 -0.065792955 0.64700001 -2.4856564e+38
0.20653592 -0.065691262 0.64600003 -2.4856564e+38
0.20774382 -0.065691262 0.64600003 -2.4723641e+38
0.20895173 -0.065691262 0.64600003 -2.4723641e+38
0.20950899 -0.065487884 0.64400005 -2.419195e+38
0.21038596 -0.065386191 0.64300001 -2.4590722e+38
0.21125917 -0.065284505 0.64200002 -2.5521208e+38
0.21245959 -0.065284505 0.64200002 -2.5521208e+38
0.21366003 -0.065284505 0.64200002 -2.4856566e+38
0.21486045 -0.065284505 0.64200002 -2.4590718e+38
0.21606088 -0.065284505 0.64200002 -2.4457795e+38
0.2172613 -0.065284505 0.64200002 -2.4324872e+38
0.21846172 -0.065284505 0.64200002 -2.4324872e+38
0.21966214 -0.065284505 0.64200002 -2.4457795e+38
0.22086257 -0.065284505 0.64200002 -2.4457795e+38
0.22206299 -0.065284505 0.64200002 -2.4590718e+38
0.22326341 -0.065284505 0.64200002 -2.5122446e+38
0.22446384 -0.065284505 0.64200002 -2.512245e+38
0.22566426 -0.065284505 0.64200002 -2.4723653e+38
0.22686468 -0.065284505 0.64200002 -2.4590724e+38
0.22842036 -0.065386191 0.64300001 -2.4590718e+38
0.230694 -0.065691262 0.64600003 -2.4590718e+38
0.2319019 -0.065691262 0.64600003 -2.4590718e+38
0.23347065 -0.065792955 0.64700001 -2.4723641e+38
0.23468041 -0.065792955 0.64700001 -2.4989486e+38
0.23625477 -0.065894641 0.648 -2.4723641e+38
0.23746641 -0.065894641 0.648 -2.5122409e+38
0.23867805 -0.065894641 0.648 -2.5255332e+38
0.24025992 -0.065996334 0.64900005 -2.5255332e+38
0.24147342 -0.065996334 0.64900005 -2.5255332e+38
0.24418269 -0.066403084 0.65300006 -2.5521182e+38
0.24615529 -0.066606462 0.65500003 -2.5787029e+38
0.2481354 -0.066809848 0.65700001 -2.5521184e+38
0.24936387 -0.066809848 0.65700001 -2.5388261e+38
0.25059235 -0.066809848 0.65700001 -2.5122411e+38
0.2518208 -0.066809848 0.65700001 -2.4457795e+38
0.25304928 -0.066809848 0.65700001 -2.4059027e+38
0.26929834 -0.065386191 0.64300001 nan
0.27092132 -0.065487884 0.64400005 nan
0.27170292 -0.065386191 0.64300001 nan
0.27332965 -0.065487884 0.64400005 nan
0.27453381 -0.065487884 0.64400005 nan
0.2753098 -0.065386191 0.64300001 nan
0.27694213 -0.065487884 0.64400005 nan
0.2781463 -0.065487884 0.64400005 nan
0.28021801 -0.065691262 0.64600003 nan
0.28142592 -0.065691262 0.64600003 -3.3016992e+38
0.17926192 -0.067879133 0.68000001 nan
0.18000242 -0.067679487 0.67800003 nan
0.179666 -0.06708055 0.67200005 nan
0.18038405 -0.066880912 0.67000002 nan
0.18082353 -0.066581443 0.66700006 -2.7938782e+38
0.1820707 -0.066581443 0.66700006 -2.8315201e+38
0.18304303 -0.06648162 0.66600001 -2.7648502e+38
0.18373491 -0.066281974 0.66400003 -2.7518715e+38
0.1846979 -0.066182151 0.66300005 -2.7118383e+38
0.18565713 -0.066082329 0.66200006 -2.7382127e+38
0.18689495 -0.066082329 0.66200006 -2.7382127e+38
0.18784858 -0.065982506 0.66100001 -2.7249206e+38
0.18794031 -0.065583222 0.65700001 -2.6983361e+38
0.18916878 -0.065583222 0.65700001 -2.7249192e+38
0.18981765 -0.065383576 0.65500003 -2.685042e+38
0.1907507 -0.065283746 0.65400004 -2.6584572e+38
0.19197357 -0.065283746 0.65400004 -2.6318724e+38
0.19290103 -0.06518393 0.65300006 -2.6185792e+38
0.19382475 -0.065084107 0.65200001 -2.6052869e+38
0.19504388 -0.065084107 0.65200001 -2.56541e+38
0.19566095 -0.064884461 0.65000004 -2.5521178e+38
0.19657345 -0.064784646 0.64900005 -2.4856564e+38
0.19778697 -0.064784646 0.64900005 -2.5255332e+38
0.19869384 -0.064684816 0.648 -2.5255332e+38
0.19990548 -0.064684816 0.648 -2.5255332e+38
0.20080677 -0.064585 0.64700001 -2.5255332e+38
0.20201655 -0.064585 0.64700001 -2.4989486e+38
0.20322631 -0.064585 0.64700001 -2.4989488e+38
0.20443609 -0.064585 0.64700001 -2.4856564e+38
0.20564586 -0.064585 0.64700001 -2.4856564e+38
0.20685564 -0.064585 0.64700001 -2.4856564e+38
0.20774382 -0.06448517 0.64600003 -2.4457795e+38
0.20895173 -0.06448517 0.64600003 -2.4457795e+38
0.21015963 -0.06448517 0.64600003 -2.459072e+38
0.21071315 -0.064285532 0.64400005 -2.4723645e+38
0.21158825 -0.064185701 0.64300001 -2.5388257e+38
0.21279055 -0.064185701 0.64300001 -2.5255332e+38
0.21399283 -0.064185701 0.64300001 -2.5255332e+38
0.21519513 -0.064185701 0.64300001 -2.4989486e+38
0.21639742 -0.064185701 0.64300001 -2.4590718e+38
0.21759972 -0.064185701 0.64300001 -2.4457795e+38
0.21846172 -0.064085886 0.64200002 -2.4457795e+38
0.21966214 -0.064085886 0.64200002 -2.4590718e+38
0.22086257 -0.064085886 0.64200002 -2.4989486e+38
0.22206299 -0.064085886 0.64200002 -2.4856564e+38
0.22326341 -0.064085886 0.64200002 -2.5255332e+38
0.22446384 -0.064085886 0.64200002 -2.5255332e+38
0.22566426 -0.064085886 0.64200002 -2.4989486e+38
0.22721806 -0.064185701 0.64300001 -2.4989486e+38
0.22877561 -0.064285532 0.64400005 -2.4723641e+38
0.230694 -0.06448517 0.64600003 -2.4723641e+38
0.23226087 -0.064585 0.64700001 -2.4723641e+38
0.23347065 -0.064585 0.64700001 -2.4723641e+38
0.23504312 -0.064684816 0.648 -2.4723641e+38
0.23625477 -0.064684816 0.648 -2.4723641e+38
0.23746641 -0.064684816 0.648 -2.4723641e+38
0.23904639 -0.064784646 0.64900005 -2.4989486e+38
0.24025992 -0.064784646 0.64900005 -2.4989486e+38
0.24258964 -0.065084107 0.65200001 -2.4989486e+38
0.24493058 -0.065383576 0.65500003 -2.5521182e+38
0.24690692 -0.065583222 0.65700001 -2.5654104e+38
0.2481354 -0.065583222 0.65700001 -2.5654117e+38
0.24974342 -0.065683037 0.65800005 -2.5654121e+38
0.25097376 -0.065683037 0.65800005 -2.5388259e+38
0.2518208 -0.065583222 0.65700001 -2.4590718e+38
0.25304928 -0.065583222 0.65700001 -2.4059027e+38
0.27092132 -0.064285532 0.64400005 nan
0.27297059 -0.06448517 0.64600003 nan
0.2741785 -0.06448517 0.64600003 nan
0.27538639 -0.06448517 0.64600003 nan
0.27573797 -0.064285532 0.64400005 nan
0.2778022 -0.06448517 0.64600003 nan
0.27901012 -0.06448517 0.64600003 nan
0.28021801 -0.06448517 0.64600003 nan
0.17799045 -0.066609569 0.68000001 nan
0.17926192 -0.066609569 0.68000001 nan
0.18000242 -0.066413656 0.67800003 nan
0.179666 -0.065825917 0.67200005 nan
0.18038405 -0.065630011 0.67000002 nan
0.18109463 -0.065434098 0.66800004 -2.6338502e+38
0.1820707 -0.065336145 0.66700006 -2.7916909e+38
0.18304303 -0.065238185 0.66600001 -2.7916909e+38
0.18373491 -0.065042272 0.66400003 -2.7384764e+38
0.1846979 -0.064944327 0.66300005 -2.6983914e+38
0.18565713 -0.064846374 0.66200006 -2.7249202e+38
0.18689495 -0.064846374 0.66200006 -2.6983351e+38
0.18784858 -0.064748414 0.66100001 -2.7249194e+38
0.18822637 -0.064454548 0.65800005 -2.7249194e+38
0.18916878 -0.064356595 0.65700001 -2.6983336e+38
0.18981765 -0.064160682 0.65500003 -2.6983336e+38
0.19104238 -0.064160682 0.65500003 -2.6451659e+38
0.19197357 -0.064062722 0.65400004 -2.6185812e+38
0.19290103 -0.063964769 0.65300006 -2.6318718e+38
0.19412202 -0.063964769 0.65300006 -2.6185794e+38
0.19504388 -0.063866816 0.65200001 -2.6185792e+38
0.19566095 -0.063670903 0.65000004 -2.6052869e+38
0.19687633 -0.063670903 0.65000004 -2.5388255e+38
0.19778697 -0.063572951 0.64900005 -2.5388255e+38
0.19900048 -0.063572951 0.64900005 -2.5388255e+38
0.19990548 -0.06347499 0.648 -2.5388255e+38
0.20111713 -0.06347499 0.648 -2.5388255e+38
0.20232877 -0.06347499 0.648 -2.5388255e+38
0.20354041 -0.06347499 0.648 -2.4989486e+38
0.20475206 -0.06347499 0.648 -2.4856564e+38
0.20564586 -0.063377045 0.64700001 -2.4856564e+38
0.20685564 -0.063377045 0.64700001 -2.4856564e+38
0.20806541 -0.063377045 0.64700001 -2.4590718e+38
0.20895173 -0.063279085 0.64600003 -2.4723641e+38
0.21015963 -0.063279085 0.64600003 -2.4590718e+38
0.21136753 -0.063279085 0.64600003 -2.4590718e+38
0.21191731 -0.063083179 0.64400005 -2.5388265e+38
0.21312147 -0.063083179 0.64400005 -2.525534e+38
0.21432564 -0.063083179 0.64400005 -2.4989486e+38
0.21519513 -0.062985219 0.64300001 -2.4856564e+38
0.21639742 -0.062985219 0.64300001 -2.4457795e+38
0.21759972 -0.062985219 0.64300001 -2.4457795e+38
0.21880202 -0.062985219 0.64300001 -2.4590718e+38
0.22000431 -0.062985219 0.64300001 -2.4723641e+38
0.22120661 -0.062985219 0.64300001 -2.4989486e+38
0.22240889 -0.062985219 0.64300001 -2.4989486e+38
0.22361119 -0.062985219 0.64300001 -2.4989486e+38
0.22481348 -0.062985219 0.64300001 -2.4989486e+38
0.22601578 -0.062985219 0.64300001 -2.4590718e+38
0.22721806 -0.062985219 0.64300001 -2.4457795e+38
0.22877561 -0.063083179 0.64400005 -2.4457795e+38
0.2310511 -0.063377045 0.64700001 -2.4590718e+38
0.23226087 -0.063377045 0.64700001 -2.4590718e+38
0.23383148 -0.06347499 0.648 -2.4989486e+38
0.23504312 -0.06347499 0.648 -2.4989511e+38
0.23661937 -0.063572951 0.64900005 -2.4989515e+38
0.23783289 -0.063572951 0.64900005 -2.498949e+38
0.23904639 -0.063572951 0.64900005 -2.4989486e+38
0.24063011 -0.063670903 0.65000004 -2.5255332e+38
0.24258964 -0.063866816 0.65200001 -2.5654104e+38
0.24493058 -0.064160682 0.65500003 -2.5654104e+38
0.24728273 -0.064454548 0.65800005 -2.5787029e+38
0.24851307 -0.064454548 0.65800005 -2.5919954e+38
0.25012296 -0.064552501 0.65900004 -2.6052879e+38
0.25097376 -0.064454548 0.65800005 -2.552118e+38
0.25220409 -0.064454548 0.65800005 -2.4590718e+38
0.25343445 -0.064454548 0.65800005 -2.3926104e+38
0.26929834 -0.062985219 0.64300001 nan
0.27092132 -0.063083179 0.64400005 nan
0.27297059 -0.063279085 0.64600003 nan
0.2741785 -0.063279085 0.64600003 nan
0.27538639 -0.063279085 0.64600003 nan
0.27659431 -0.063279085 0.64600003 nan
0.27823225 -0.063377045 0.64700001 nan
0.27944201 -0.063377045 0.64700001 nan
0.17493871 -0.066108704 0.68800002 nan
0.17799045 -0.065339997 0.68000001 nan
0.17899829 -0.065243907 0.67900002 nan
0.1802679 -0.065243907 0.67900002 nan
0.18127015 -0.065147817 0.67800003 nan
0.18065329 -0.064475201 0.671 nan
0.18082353 -0.064090855 0.66700006 -2.5937606e+38
0.1820707 -0.064090855 0.66700006 -2.7781384e+38
0.18304303 -0.063994758 0.66600001 -2.7914307e+38
0.18373491 -0.063802578 0.66400003 -2.7116837e+38
0.18497647 -0.063802578 0.66400003 -2.6983393e+38
0.18593758 -0.063706495 0.66300005 -2.7382113e+38
0.18689495 -0.063610412 0.66200006 -2.6983336e+38
0.18784858 -0.063514315 0.66100001 -2.6983345e+38
0.18822637 -0.063226052 0.65800005 -2.7249192e+38
0.18916878 -0.063129969 0.65700001 -2.6983328e+38
0.18981765 -0.062937789 0.65500003 -2.6717483e+38
0.19104238 -0.062937789 0.65500003 -2.61858e+38
0.19197357 -0.062841699 0.65400004 -2.61858e+38
0.19290103 -0.062745616 0.65300006 -2.6318718e+38
0.19412202 -0.062745616 0.65300006 -2.6451643e+38
0.19504388 -0.062649526 0.65200001 -2.6052869e+38
0.19566095 -0.062457349 0.65000004 -2.6052869e+38
0.19687633 -0.062457349 0.65000004 -2.5388255e+38
0.19778697 -0.062361263 0.64900005 -2.5388255e+38
0.19900048 -0.062361263 0.64900005 -2.5388255e+38
0.19990548 -0.062265173 0.648 -2.5388255e+38
0.20111713 -0.062265173 0.648 -2.5388255e+38
0.20264103 -0.062361263 0.64900005 -2.5255332e+38
0.20385453 -0.062361263 0.64900005 -2.4989486e+38
0.20506805 -0.062361263 0.64900005 -2.4856564e+38
0.2059637 -0.062265173 0.648 -2.4723641e+38
0.20717534 -0.062265173 0.648 -2.4856564e+38
0.20806541 -0.062169086 0.64700001 -2.4590718e+38
0.20927519 -0.062169086 0.64700001 -2.4590718e+38
0.21048495 -0.062169086 0.64700001 -2.4989486e+38
0.21169473 -0.062169086 0.64700001 -2.4989486e+38
0.21257544 -0.062072992 0.64600003 -2.5654115e+38
0.21378334 -0.062072992 0.64600003 -2.525534e+38
0.21499124 -0.062072992 0.64600003 -2.4989486e+38
0.21619914 -0.062072992 0.64600003 -2.4856564e+38
0.21673396 -0.061880823 0.64400005 -2.4457795e+38
0.21793813 -0.061880823 0.64400005 -2.4324872e+38
0.21914229 -0.061880823 0.64400005 -2.4457795e+38
0.22034645 -0.061880823 0.64400005 -2.4590718e+38
0.22155061 -0.061880823 0.64400005 -2.4989486e+38
0.22240889 -0.061784729 0.64300001 -2.4856564e+38
0.22361119 -0.061784729 0.64300001 -2.4856564e+38
0.2251631 -0.061880823 0.64400005 -2.4723641e+38
0.22636726 -0.061880823 0.64400005 -2.4856564e+38
0.22757144 -0.061880823 0.64400005 -2.4856564e+38
0.22948609 -0.062072992 0.64600003 -2.4723641e+38
0.2310511 -0.062169086 0.64700001 -2.4723641e+38
0.23261985 -0.062265173 0.648 -2.4590718e+38
0.23383148 -0.062265173 0.648 -2.4989486e+38
0.23540586 -0.062361263 0.64900005 -2.5388299e+38
0.23661937 -0.062361263 0.64900005 -2.512246e+38
0.23783289 -0.062361263 0.64900005 -2.4989494e+38
0.23941472 -0.062457349 0.65000004 -2.4989486e+38
0.24137051 -0.062649526 0.65200001 -2.5255336e+38
0.2429617 -0.062745616 0.65300006 -2.5255336e+38
0.24567845 -0.063129969 0.65700001 -2.5654106e+38
0.24728273 -0.063226052 0.65800005 -2.5787029e+38
0.24851307 -0.063226052 0.65800005 -2.5787029e+38
0.25088206 -0.063514315 0.66100001 -2.5654104e+38
0.25211799 -0.063514315 0.66100001 -2.5388255e+38
0.26929834 -0.061784729 0.64300001 nan
0.27092132 -0.061880823 0.64400005 nan
0.27297059 -0.062072992 0.64600003 nan
0.2741785 -0.062072992 0.64600003 nan
0.27581269 -0.062169086 0.64700001 nan
0.27659431 -0.062072992 0.64600003 nan
0.27823225 -0.062169086 0.64700001 nan
0.27944201 -0.062169086 0.64700001 nan
0.17493871 -0.064824201 0.68800002 nan
0.17622516 -0.064824201 0.68800002 nan
0.17671897 -0.064070433 0.68000001 nan
0.17799045 -0.064070433 0.68000001 nan
0.17899829 -0.063976206 0.67900002 nan
0.1802679 -0.063976206 0.67900002 nan
0.18127015 -0.063881986 0.67800003 nan
0.18065329 -0.063222438 0.671 nan
0.18109463 -0.062939778 0.66800004 -2.4071511e+38
0.1820707 -0.062845558 0.66700006 -2.7915865e+38
0.18304303 -0.06275133 0.66600001 -2.818223e+38
0.18428834 -0.06275133 0.66600001 -2.7780924e+38
0.18497647 -0.062562883 0.66400003 -2.7515074e+38
0.18621804 -0.062562883 0.66400003 -2.6983355e+38
0.18717729 -0.062468667 0.66300005 -2.6451657e+38
0.18813278 -0.06237445 0.66200006 -2.7249192e+38
0.18794031 -0.061903343 0.65700001 -2.7249192e+38
0.18916878 -0.061903343 0.65700001 -2.6983343e+38
0.18981765 -0.061714899 0.65500003 -2.7382117e+38
0.19104238 -0.061714899 0.65500003 -2.6451659e+38
0.19197357 -0.061620675 0.65400004 -2.6451659e+38
0.19319643 -0.061620675 0.65400004 -2.552118e+38
0.19412202 -0.061526455 0.65300006 -2.5521178e+38
0.19504388 -0.061432239 0.65200001 -2.6185794e+38
0.19566095 -0.061243791 0.65000004 -2.6185794e+38
0.19687633 -0.061243791 0.65000004 -2.6052869e+38
0.19778697 -0.061149571 0.64900005 -2.6052869e+38
0.19900048 -0.061149571 0.64900005 -2.5388255e+38
0.200214 -0.061149571 0.64900005 -2.5388255e+38
0.2014275 -0.061149571 0.64900005 -2.5388255e+38
0.20264103 -0.061149571 0.64900005 -2.5388255e+38
0.20385453 -0.061149571 0.64900005 -2.4590718e+38
0.20506805 -0.061149571 0.64900005 -2.4590718e+38
0.2059637 -0.061055347 0.648 -2.4457795e+38
0.20717534 -0.061055347 0.648 -2.4590718e+38
0.20838699 -0.061055347 0.648 -2.5122413e+38
0.20959863 -0.061055347 0.648 -2.4856564e+38
0.21048495 -0.060961127 0.64700001 -2.4590718e+38
0.21169473 -0.060961127 0.64700001 -2.4723641e+38
0.2129045 -0.060961127 0.64700001 -2.4723649e+38
0.21411428 -0.060961127 0.64700001 -2.4723649e+38
0.21499124 -0.060866907 0.64600003 -2.4590724e+38
0.21619914 -0.060866907 0.64600003 -2.4457799e+38
0.21740705 -0.060866907 0.64600003 -2.4457795e+38
0.21861495 -0.060866907 0.64600003 -2.4457795e+38
0.21982285 -0.060866907 0.64600003 -2.4856564e+38
0.22034645 -0.060678463 0.64400005 -2.4989486e+38
0.22155061 -0.060678463 0.64400005 -2.4856564e+38
0.22275478 -0.060678463 0.64400005 -2.4856564e+38
0.22395894 -0.060678463 0.64400005 -2.4856564e+38
0.22586238 -0.060866907 0.64600003 -2.4856564e+38
0.22707029 -0.060866907 0.64600003 -2.4457795e+38
0.22827819 -0.060866907 0.64600003 -2.4324872e+38
0.22948609 -0.060866907 0.64600003 -2.4723641e+38
0.23140821 -0.061055347 0.648 -2.4723641e+38
0.23297884 -0.061149571 0.64900005 -2.4457795e+38
0.23419234 -0.061149571 0.64900005 -2.4723641e+38
0.23576857 -0.061243791 0.65000004 -2.4989501e+38
0.23698395 -0.061243791 0.65000004 -2.4989503e+38
0.23893227 -0.061432239 0.65200001 -2.4989488e+38
0.24015139 -0.061432239 0.65200001 -2.4989486e+38
0.2417407 -0.061526455 0.65300006 -2.5255336e+38
0.24370584 -0.061714899 0.65500003 -2.5388261e+38
0.24567845 -0.061903343 0.65700001 -2.5388261e+38
0.24728273 -0.061997563 0.65800005 -2.5388261e+38
0.24851307 -0.061997563 0.65800005 -2.525535e+38
0.24974342 -0.061997563 0.65800005 -2.4989507e+38
0.25097376 -0.061997563 0.65800005 -2.4723645e+38
0.26971716 -0.060678463 0.64400005 nan
0.2717627 -0.060866907 0.64600003 nan
0.27339315 -0.060961127 0.64700001 nan
0.27460292 -0.060961127 0.64700001 nan
0.27581269 -0.060961127 0.64700001 nan
0.27702248 -0.060961127 0.64700001 nan
0.27823225 -0.060961127 0.64700001 nan
0.27944201 -0.060961127 0.64700001 nan
0.17493871 -0.063539699 0.68800002 nan
0.175969 -0.063447341 0.68700004 nan
0.17725356 -0.063447341 0.68700004 nan
0.17827825 -0.063354984 0.68600005 nan
0.1787757 -0.063077927 0.68300003 nan
0.17978916 -0.062985569 0.68200004 nan
0.1802679 -0.062708504 0.67900002 nan
0.18127015 -0.062616155 0.67800003 nan
0.18065329 -0.061969675 0.671 nan
0.18109463 -0.06169261 0.66800004 -2.4999376e+38
0.1820707 -0.06160026 0.66700006 -2.7648462e+38
0.18331787 -0.06160026 0.66700006 -2.8714444e+38
0.18428834 -0.061507903 0.66600001 -2.7518705e+38
0.18497647 -0.061323192 0.66400003 -2.6451672e+38
0.18621804 -0.061323192 0.66400003 -2.7249188e+38
0.18717729 -0.061230842 0.66300005 -2.6983336e+38
0.18813278 -0.061138485 0.66200006 -2.7116261e+38
0.18822637 -0.06076907 0.65800005 -2.7249186e+38
0.18916878 -0.060676713 0.65700001 -2.698333e+38
0.18981765 -0.060492009 0.65500003 -2.7382105e+38
0.19104238 -0.060492009 0.65500003 -2.6717533e+38
0.19226712 -0.060492009 0.65500003 -2.6185834e+38
0.19319643 -0.060399652 0.65400004 -2.5787029e+38
0.19412202 -0.060307298 0.65300006 -2.5654104e+38
0.19504388 -0.060214944 0.65200001 -2.5521178e+38
0.19566095 -0.060030237 0.65000004 -2.5521178e+38
0.19687633 -0.060030237 0.65000004 -2.5388255e+38
0.19809172 -0.060030237 0.65000004 -2.5388255e+38
0.19900048 -0.059937883 0.64900005 -2.5388255e+38
0.200214 -0.059937883 0.64900005 -2.5388255e+38
0.2014275 -0.059937883 0.64900005 -2.5388255e+38
0.20295325 -0.060030237 0.65000004 -2.5255332e+38
0.20416863 -0.060030237 0.65000004 -2.5255332e+38
0.20506805 -0.059937883 0.64900005 -2.4989486e+38
0.20628156 -0.059937883 0.64900005 -2.5255332e+38
0.20749506 -0.059937883 0.64900005 -2.5521178e+38
0.20870858 -0.059937883 0.64900005 -2.5654119e+38
0.20959863 -0.059845526 0.648 -2.5255344e+38
0.21081027 -0.059845526 0.648 -2.4590718e+38
0.21202192 -0.059845526 0.648 -2.4590718e+38
0.2129045 -0.059753172 0.64700001 -2.419195e+38
0.21411428 -0.059753172 0.64700001 -2.4457797e+38
0.21532404 -0.059753172 0.64700001 -2.459072e+38
0.21619914 -0.059660818 0.64600003 -2.459072e+38
0.21740705 -0.059660818 0.64600003 -2.4457795e+38
0.21861495 -0.059660818 0.64600003 -2.4457795e+38
0.21982285 -0.059660818 0.64600003 -2.4856564e+38
0.22103076 -0.059660818 0.64600003 -2.4989486e+38
0.22223867 -0.059660818 0.64600003 -2.4856564e+38
0.22344658 -0.059660818 0.64600003 -2.4856564e+38
0.22465448 -0.059660818 0.64600003 -2.4856564e+38
0.22586238 -0.059660818 0.64600003 -2.4856564e+38
0.22707029 -0.059660818 0.64600003 -2.4856564e+38
0.22827819 -0.059660818 0.64600003 -2.4856564e+38
0.22984132 -0.059753172 0.64700001 -2.4856564e+38
0.23140821 -0.059845526 0.648 -2.4989486e+38
0.23297884 -0.059937883 0.64900005 -2.4989486e+38
0.23455319 -0.060030237 0.65000004 -2.4989486e+38
0.23576857 -0.060030237 0.65000004 -2.5388255e+38
0.23771314 -0.060214944 0.65200001 -2.5388255e+38
0.23929872 -0.060307298 0.65300006 -2.5388255e+38
0.24051972 -0.060307298 0.65300006 -2.552118e+38
0.2417407 -0.060307298 0.65300006 -2.5654104e+38
0.24370584 -0.060492009 0.65500003 -2.5787029e+38
0.24567845 -0.060676713 0.65700001 -2.5787029e+38
0.24728273 -0.06076907 0.65800005 -2.6052879e+38
0.2481354 -0.060676713 0.65700001 -2.5654123e+38
0.24974342 -0.06076907 0.65800005 -2.5122431e+38
0.25097376 -0.06076907 0.65800005 -2.498949e+38
0.2717627 -0.059660818 0.64600003 nan
0.27339315 -0.059753172 0.64700001 nan
0.27460292 -0.059753172 0.64700001 nan
0.27581269 -0.059753172 0.64700001 nan
0.27702248 -0.059753172 0.64700001 nan
0.27823225 -0.059753172 0.64700001 nan
0.27987391 -0.059845526 0.648 nan
0.17493871 -0.062255196 0.68800002 nan
0.17622516 -0.062255196 0.68800002 nan
0.17751159 -0.062255196 0.68800002 nan
0.17853813 -0.062164702 0.68700004 nan
0.17903745 -0.061893243 0.68400002 nan
0.17978916 -0.061712265 0.68200004 nan
0.1802679 -0.061440807 0.67900002 nan
0.18073542 -0.061169345 0.67600006 nan
0.18092252 -0.060807396 0.67200005 nan
0.18109463 -0.06044545 0.66800004 -2.4731447e+38
0.1820707 -0.060354963 0.66700006 -2.7251251e+38
0.18331787 -0.060354963 0.66700006 -2.8319314e+38
