# .PCD v0.7 - Point Cloud Data file format
VERSION 0.7
FIELDS x y z rgb
SIZE 4 4 4 4
TYPE F F F F
COUNT 1 1 1 1
WIDTH 991
HEIGHT 1
VIEWPOINT 0 0 0 1 0 0 0
POINTS 991
DATA ascii
-0.11615859 0.18088187 0.61500001 -2.4996273e+38
-0.11482164 0.18058775 0.61400002 -2.5393997e+38
-0.11385871 0.18088187 0.61500001 -2.5660897e+38
-0.11270878 0.18088187 0.61500001 -2.5660404e+38
-0.11155884 0.18088187 0.61500001 -2.539455e+38
-0.11022937 0.18058775 0.61400002 -2.4996806e+38
-0.10925896 0.18088187 0.61500001 -2.5128693e+38
-0.10793323 0.18058775 0.61400002 -2.5527467e+38
-0.10678516 0.18058775 0.61400002 -2.5659345e+38
-0.10580914 0.18088187 0.61500001 -2.5924146e+38
-0.10465921 0.18088187 0.61500001 -2.5925197e+38
-0.10350926 0.18088187 0.61500001 -2.552696e+38
-0.10235932 0.18088187 0.61500001 -2.552695e+38
-0.10120939 0.18088187 0.61500001 -2.5660903e+38
-0.10005945 0.18088187 0.61500001 -2.5926759e+38
-0.099070333 0.18117599 0.61600006 -2.5926769e+38
-0.097918525 0.18117599 0.61600006 -2.5926761e+38
-0.096766718 0.18117599 0.61600006 -2.5793826e+38
-0.095925353 0.18176422 0.61800003 -2.5793307e+38
-0.094769806 0.18176422 0.61800003 -2.5926229e+38
-0.093765736 0.18205835 0.61900002 -2.6059152e+38
-0.092608318 0.18205835 0.61900002 -2.6191556e+38
-0.091598637 0.18235245 0.62 -2.6192075e+38
-0.090585224 0.18264657 0.62100005 -2.6192075e+38
-0.089568064 0.18294071 0.62200004 -2.632604e+38
-0.088405035 0.18294071 0.62200004 -2.659293e+38
-0.087382264 0.18323481 0.62300003 -2.6593446e+38
-0.086217366 0.18323481 0.62300003 -2.6593444e+38
-0.085188992 0.18352893 0.62400001 -2.6593448e+38
-0.084156878 0.18382303 0.625 -2.659345e+38
-0.083253801 0.18441127 0.62700003 -2.659449e+38
-0.082212336 0.18470539 0.62800002 -2.6728455e+38
-0.081167132 0.18499951 0.62900001 -2.6860861e+38
-0.079991013 0.18499951 0.62900001 -2.6993786e+38
-0.078940198 0.18529363 0.63000005 -2.7393591e+38
-0.078009084 0.18588187 0.63200003 -2.779444e+38
-0.077313602 0.18705833 0.63600004 -2.7795994e+38
-0.076244086 0.18735245 0.63700002 -2.7929957e+38
-0.075170837 0.18764655 0.63800001 -2.8328736e+38
-0.074325748 0.18852891 0.64100003 -2.872907e+38
-0.073241286 0.18882303 0.64200002 -2.8997007e+38
-0.072601922 0.19029361 0.64700001 -2.9531306e+38
-0.071392149 0.19029361 0.64700001 -2.9799762e+38
-0.070182376 0.19029361 0.64700001 -2.9533916e+38
-0.069079205 0.19058773 0.648 -2.9269089e+38
-0.13945881 0.18706182 0.63200003 -2.7405022e+38
-0.1380583 0.18676582 0.63100004 -2.660436e+38
-0.13687845 0.18676582 0.63100004 -2.7399321e+38
-0.13526846 0.18617387 0.62900001 -2.713243e+38
-0.13366599 0.18558189 0.62700003 -2.6467287e+38
-0.13185968 0.18469393 0.62400001 -2.5800586e+38
-0.13048348 0.18439797 0.62300003 -2.6329679e+38
-0.12931858 0.18439797 0.62300003 -2.592987e+38
-0.12794797 0.18410198 0.62200004 -2.6062274e+38
-0.12637727 0.18351001 0.62 -2.5796424e+38
-0.12521799 0.18351001 0.62 -2.5130763e+38
-0.1238586 0.18321402 0.61900002 -2.4597511e+38
-0.12270118 0.18321402 0.61900002 -2.4863362e+38
-0.12134741 0.18291803 0.61800003 -2.4729914e+38
-0.11980289 0.18232608 0.61600006 -2.4863344e+38
-0.11865108 0.18232608 0.61600006 -2.4863346e+38
-0.11730853 0.18203008 0.61500001 -2.499576e+38
-0.11634746 0.18232608 0.61600006 -2.4862312e+38
-0.11519565 0.18232608 0.61600006 -2.5393475e+38
-0.11404385 0.18232608 0.61600006 -2.5793818e+38
-0.11289204 0.18232608 0.61600006 -2.5793325e+38
-0.11155884 0.18203008 0.61500001 -2.5660915e+38
-0.11040889 0.18203008 0.61500001 -2.5395055e+38
-0.10925896 0.18203008 0.61500001 -2.539454e+38
-0.10793323 0.1817341 0.61400002 -2.5526952e+38
-0.10695908 0.18203008 0.61500001 -2.5526427e+38
-0.10580914 0.18203008 0.61500001 -2.5525897e+38
-0.10465921 0.18203008 0.61500001 -2.5659867e+38
-0.10350926 0.18203008 0.61500001 -2.552695e+38
-0.10235932 0.18203008 0.61500001 -2.5527465e+38
-0.10137396 0.18232608 0.61600006 -2.5660903e+38
-0.10022215 0.18232608 0.61600006 -2.5793834e+38
-0.099391997 0.18291803 0.61800003 -2.5926765e+38
-0.098236449 0.18291803 0.61800003 -2.5926761e+38
-0.097080901 0.18291803 0.61800003 -2.5927278e+38
-0.095925353 0.18291803 0.61800003 -2.5927795e+38
-0.094923154 0.18321402 0.61900002 -2.5794868e+38
-0.093765736 0.18321402 0.61900002 -2.5794345e+38
-0.092757918 0.18351001 0.62 -2.5793307e+38
-0.091746382 0.18380599 0.62100005 -2.6058631e+38
-0.090585224 0.18380599 0.62100005 -2.6191556e+38
-0.089568064 0.18410198 0.62200004 -2.6325519e+38
-0.088405035 0.18410198 0.62200004 -2.6458965e+38
-0.087382264 0.18439797 0.62300003 -2.6458969e+38
-0.086217366 0.18439797 0.62300003 -2.6458973e+38
-0.085188992 0.18469393 0.62400001 -2.6459488e+38
-0.084426172 0.18558189 0.62700003 -2.6460006e+38
-0.083253801 0.18558189 0.62700003 -2.6460527e+38
-0.082343251 0.18617387 0.62900001 -2.6461046e+38
-0.081167132 0.18617387 0.62900001 -2.6858778e+38
-0.080118187 0.18646984 0.63000005 -2.7258072e+38
-0.079065502 0.18676582 0.63100004 -2.7259108e+38
-0.078009084 0.18706182 0.63200003 -2.7926848e+38
-0.077070475 0.18765378 0.634 -2.7662556e+38
-0.076603167 0.18942969 0.64000005 -2.7929963e+38
-0.0755243 0.18972567 0.64100003 -2.8062892e+38
-0.074441709 0.19002166 0.64200002 -2.832978e+38
-0.073697612 0.19120559 0.64600003 -2.8731161e+38
-0.072489709 0.19120559 0.64600003 -2.9531306e+38
-0.071502492 0.19179755 0.648 -2.9400992e+38
-0.070290849 0.19179755 0.648 -2.9135146e+38
-0.069079205 0.19179755 0.648 -2.8736359e+38
-0.13827708 0.18824176 0.63200003 -2.7270554e+38
-0.13687845 0.18794391 0.63100004 -2.7667758e+38
-0.13548353 0.18764606 0.63000005 -2.6867615e+38
-0.13387918 0.18705036 0.62800002 -2.6334885e+38
-0.13207099 0.18615679 0.625 -2.5934032e+38
-0.13069291 0.18585895 0.62400001 -2.6198833e+38
-0.12931858 0.18556111 0.62300003 -2.579798e+38
-0.12815368 0.18556111 0.62300003 -2.6195712e+38
-0.1265811 0.1849654 0.62100005 -2.5662461e+38
-0.12521799 0.18466756 0.62 -2.4995774e+38
-0.1240587 0.18466756 0.62 -2.4862328e+38
-0.12270118 0.18436971 0.61900002 -2.4995766e+38
-0.12134741 0.18407184 0.61800003 -2.486232e+38
-0.12019186 0.18407184 0.61800003 -2.4862316e+38
-0.11903632 0.18407184 0.61800003 -2.4862837e+38
-0.11749928 0.18347615 0.61600006 -2.4995766e+38
-0.11672522 0.18407184 0.61800003 -2.4995242e+38
-0.11519565 0.18347615 0.61600006 -2.5260044e+38
-0.11441413 0.18407184 0.61800003 -2.5393494e+38
-0.11325858 0.18407184 0.61800003 -2.5392471e+38
-0.11174023 0.18347615 0.61600006 -2.5392987e+38
-0.11058842 0.18347615 0.61600006 -2.5394015e+38
-0.10943662 0.18347615 0.61600006 -2.5527459e+38
-0.10810902 0.18317829 0.61500001 -2.53935e+38
-0.10695908 0.18317829 0.61500001 -2.5260573e+38
-0.10598119 0.18347615 0.61600006 -2.5127127e+38
-0.10482938 0.18347615 0.61600006 -2.5394007e+38
-0.10367757 0.18347615 0.61600006 -2.552796e+38
-0.10285864 0.18407184 0.61800003 -2.5660372e+38
-0.10170309 0.18407184 0.61800003 -2.5925708e+38
-0.10054754 0.18407184 0.61800003 -2.6059162e+38
-0.099391997 0.18407184 0.61800003 -2.5926771e+38
-0.098236449 0.18407184 0.61800003 -2.5926244e+38
-0.097237989 0.18436971 0.61900002 -2.605968e+38
-0.096080571 0.18436971 0.61900002 -2.5927274e+38
-0.094923154 0.18436971 0.61900002 -2.5661424e+38
-0.093917206 0.18466756 0.62 -2.5660903e+38
-0.092907533 0.1849654 0.62100005 -2.5527459e+38
-0.091746382 0.1849654 0.62100005 -2.5792781e+38
-0.090731092 0.18526326 0.62200004 -2.6191548e+38
-0.089568064 0.18526326 0.62200004 -2.6324996e+38
-0.088405035 0.18526326 0.62200004 -2.6325521e+38
-0.087382264 0.18556111 0.62300003 -2.6459497e+38
-0.086355753 0.18585895 0.62400001 -2.632658e+38
-0.085325517 0.18615679 0.625 -2.6458973e+38
-0.084426172 0.18675251 0.62700003 -2.659189e+38
-0.083386585 0.18705036 0.62800002 -2.6591375e+38
-0.082343251 0.18734822 0.62900001 -2.6724821e+38
-0.081296168 0.18764606 0.63000005 -2.6725338e+38
-0.080118187 0.18764606 0.63000005 -2.6992222e+38
-0.079065502 0.18794391 0.63100004 -2.7259108e+38
-0.078255944 0.18883747 0.634 -2.765996e+38
-0.077313602 0.18943317 0.63600004 -2.7528079e+38
-0.076603167 0.19062456 0.64000005 -2.7928933e+38
-0.0755243 0.19092241 0.64100003 -2.7929971e+38
-0.074673608 0.19181597 0.64400005 -2.8196857e+38
-0.073697612 0.19241168 0.64600003 -2.873064e+38
-0.072601922 0.19270952 0.64700001 -2.9531306e+38
-0.071723178 0.19360308 0.65000004 -2.9001185e+38
-0.070507795 0.19360308 0.65000004 -2.8868783e+38
-0.06971883 0.19479448 0.65400004 -2.8471556e+38
-0.068495966 0.19479448 0.65400004 nan
-0.13827708 0.18942171 0.63200003 -2.7407097e+38
-0.13709536 0.18942171 0.63200003 -2.7803291e+38
-0.13569859 0.18912199 0.63100004 -2.6601774e+38
-0.13409236 0.18852256 0.62900001 -2.6334374e+38
-0.13270493 0.18822284 0.62800002 -2.6066967e+38
-0.13090235 0.18732367 0.625 -2.5932996e+38
-0.12952614 0.18702397 0.62400001 -2.5532142e+38
-0.12815368 0.18672426 0.62300003 -2.5664022e+38
-0.12678494 0.18642454 0.62200004 -2.5530059e+38
-0.12541994 0.18612482 0.62100005 -2.499681e+38
-0.12425879 0.18612482 0.62100005 -2.4862843e+38
-0.12289941 0.18582509 0.62 -2.4862829e+38
-0.12154377 0.18552539 0.61900002 -2.4862314e+38
-0.12038635 0.18552539 0.61900002 -2.4862322e+38
-0.11922893 0.18552539 0.61900002 -2.4995766e+38
-0.11788077 0.18522565 0.61800003 -2.4995766e+38
-0.11672522 0.18522565 0.61800003 -2.4862322e+38
-0.11556967 0.18522565 0.61800003 -2.48618e+38
-0.11441413 0.18522565 0.61800003 -2.4994206e+38
-0.11325858 0.18522565 0.61800003 -2.5126614e+38
-0.11210303 0.18522565 0.61800003 -2.5126612e+38
-0.11058842 0.18462624 0.61600006 -2.5260571e+38
-0.1082848 0.18462624 0.61600006 -2.5260571e+38
-0.10713299 0.18462624 0.61600006 -2.5127123e+38
-0.10598119 0.18462624 0.61600006 -2.5126595e+38
-0.10516974 0.18522565 0.61800003 -2.5260555e+38
-0.10401419 0.18522565 0.61800003 -2.5395031e+38
-0.10285864 0.18522565 0.61800003 -2.5659848e+38
-0.10170309 0.18522565 0.61800003 -2.605759e+38
-0.10054754 0.18522565 0.61800003 -2.6191045e+38
-0.099391997 0.18522565 0.61800003 -2.6058651e+38
-0.098236449 0.18522565 0.61800003 -2.6058643e+38
-0.097237989 0.18552539 0.61900002 -2.6192075e+38
-0.096080571 0.18552539 0.61900002 -2.5926233e+38
-0.095076494 0.18582509 0.62 -2.566039e+38
-0.093917206 0.18582509 0.62 -2.5660905e+38
-0.092907533 0.18612482 0.62100005 -2.5527459e+38
-0.09189412 0.18642454 0.62200004 -2.5926221e+38
-0.090731092 0.18642454 0.62200004 -2.6059138e+38
-0.089568064 0.18642454 0.62200004 -2.6192069e+38
-0.088547163 0.18672426 0.62300003 -2.6458963e+38
-0.087382264 0.18672426 0.62300003 -2.6459501e+38
-0.086355753 0.18702397 0.62400001 -2.6326586e+38
-0.085325517 0.18732367 0.625 -2.6591379e+38
-0.084426172 0.18792312 0.62700003 -2.6723255e+38
-0.083386585 0.18822284 0.62800002 -2.6856703e+38
-0.082474157 0.18882228 0.63000005 -2.6990669e+38
-0.081425212 0.18912199 0.63100004 -2.6858776e+38
-0.080245353 0.18912199 0.63100004 -2.6859291e+38
-0.079190806 0.18942171 0.63200003 -2.7125664e+38
-0.078379378 0.19032086 0.63500005 -2.7259632e+38
-0.077435166 0.19092031 0.63700002 -2.7393599e+38
-0.07672286 0.19211917 0.64100003 -2.7794454e+38
-0.075642131 0.1924189 0.64200002 -2.7929454e+38
-0.074673608 0.19301832 0.64400005 -2.8330305e+38
-0.073469445 0.19301832 0.64400005 -2.8597713e+38
-0.072714135 0.19421719 0.648 -2.8998043e+38
-0.071943864 0.19541608 0.65200001 -2.8733246e+38
-0.070941687 0.19601551 0.65400004 -2.8867213e+38
-0.06971883 0.19601551 0.65400004 -2.874001e+38
-0.068495966 0.19601551 0.65400004 nan
-0.13871469 0.19120483 0.634 -2.7140716e+38
-0.13752921 0.19120483 0.634 -2.7803811e+38
-0.13591363 0.19060168 0.63200003 -2.6335405e+38
-0.13451873 0.19030008 0.63100004 -2.6466261e+38
-0.13397282 0.19120483 0.634 -2.6199375e+38
-0.13132124 0.18909374 0.62700003 -2.579904e+38
-0.12952614 0.18818898 0.62400001 -2.5398187e+38
-0.12835938 0.18818898 0.62400001 -2.539766e+38
-0.12698878 0.1878874 0.62300003 -2.5264214e+38
-0.12562191 0.18758582 0.62200004 -2.513077e+38
-0.12425879 0.18728423 0.62100005 -2.4863877e+38
-0.12309763 0.18728423 0.62100005 -2.5129181e+38
-0.12174012 0.18698265 0.62 -2.5129188e+38
-0.12058083 0.18698265 0.62 -2.5127648e+38
-0.11922893 0.18668106 0.61900002 -2.5128689e+38
-0.11807151 0.18668106 0.61900002 -2.4995766e+38
-0.11691409 0.18668106 0.61900002 -2.4862322e+38
-0.11575668 0.18668106 0.61900002 -2.4994723e+38
-0.11459926 0.18668106 0.61900002 -2.5127648e+38
-0.11325858 0.18637948 0.61800003 -2.5127127e+38
-0.11210303 0.18637948 0.61800003 -2.5127127e+38
-0.11094747 0.18637948 0.61800003 -2.5127127e+38
-0.10979193 0.18637948 0.61800003 -2.5260571e+38
-0.10863638 0.18637948 0.61800003 -2.5260571e+38
-0.10748083 0.18637948 0.61800003 -2.5260567e+38
-0.10632528 0.18637948 0.61800003 -2.5127119e+38
-0.10516974 0.18637948 0.61800003 -2.5260559e+38
-0.10401419 0.18637948 0.61800003 -2.5394518e+38
-0.10302508 0.18668106 0.61900002 -2.5526408e+38
-0.10186766 0.18668106 0.61900002 -2.5923627e+38
-0.10071024 0.18668106 0.61900002 -2.6057592e+38
-0.099552825 0.18668106 0.61900002 -2.6058118e+38
-0.098395407 0.18668106 0.61900002 -2.5925712e+38
-0.097237989 0.18668106 0.61900002 -2.5926749e+38
-0.096235782 0.18698265 0.62 -2.5793317e+38
-0.095076494 0.18698265 0.62 -2.5659883e+38
-0.094068691 0.18728423 0.62100005 -2.5660392e+38
-0.093057141 0.18758582 0.62200004 -2.5660903e+38
-0.09189412 0.18758582 0.62200004 -2.5926743e+38
-0.090876959 0.1878874 0.62300003 -2.6059138e+38
-0.089712061 0.1878874 0.62300003 -2.6059146e+38
-0.088547163 0.1878874 0.62300003 -2.6325519e+38
-0.087382264 0.1878874 0.62300003 -2.6325012e+38
-0.086355753 0.18818898 0.62400001 -2.6457422e+38
-0.085325517 0.18849057 0.625 -2.6457412e+38
-0.084426172 0.18909374 0.62700003 -2.6324481e+38
-0.083652146 0.18999849 0.63000005 -2.6723774e+38
-0.082605064 0.19030008 0.63100004 -2.6990662e+38
-0.081554256 0.19060168 0.63200003 -2.6858235e+38
-0.080372535 0.19060168 0.63200003 -2.6992184e+38
-0.07956671 0.19150642 0.63500005 -2.7125652e+38
-0.078502804 0.191808 0.63600004 -2.7259106e+38
-0.077556722 0.19241117 0.63800001 -2.739411e+38
-0.07672286 0.19331592 0.64100003 -2.7661517e+38
-0.075642131 0.19361752 0.64200002 -2.7796006e+38
-0.074673608 0.19422068 0.64400005 -2.8330825e+38
-0.073697612 0.19482386 0.64600003 -2.8597707e+38
-0.07216455 0.19723652 0.65400004 -2.8332382e+38
-0.070941687 0.19723652 0.65400004 -2.913357e+38
-0.06971883 0.19723652 0.65400004 -2.9408794e+38
-0.068495966 0.19723652 0.65400004 nan
-0.13752921 0.19238852 0.634 -2.7537446e+38
-0.13591363 0.19178163 0.63200003 -2.6203005e+38
-0.1347319 0.19178163 0.63200003 -2.6333338e+38
-0.13418412 0.19269197 0.63500005 -2.5799562e+38
-0.13215902 0.19147816 0.63100004 -2.5799552e+38
-0.12973373 0.18965745 0.625 -2.5532144e+38
-0.12835938 0.189354 0.62400001 -2.5531104e+38
-0.12698878 0.18905056 0.62300003 -2.5263694e+38
-0.12562191 0.18874711 0.62200004 -2.4996287e+38
-0.12445889 0.18874711 0.62200004 -2.4862839e+38
-0.12329586 0.18874711 0.62200004 -2.4996263e+38
-0.12174012 0.1881402 0.62 -2.5129192e+38
-0.12058083 0.1881402 0.62 -2.4995244e+38
-0.11942154 0.1881402 0.62 -2.5128689e+38
-0.11807151 0.18783675 0.61900002 -2.4862322e+38
-0.11691409 0.18783675 0.61900002 -2.4728876e+38
-0.11575668 0.18783675 0.61900002 -2.5260571e+38
-0.11459926 0.18783675 0.61900002 -2.5394011e+38
-0.11344184 0.18783675 0.61900002 -2.526108e+38
-0.11210303 0.18753329 0.61800003 -2.5260563e+38
-0.11094747 0.18753329 0.61800003 -2.5127127e+38
-0.10979193 0.18753329 0.61800003 -2.5126601e+38
-0.10863638 0.18753329 0.61800003 -2.5260039e+38
-0.10765475 0.18783675 0.61900002 -2.5394009e+38
-0.10632528 0.18753329 0.61800003 -2.4995244e+38
-0.10533991 0.18783675 0.61900002 -2.5128161e+38
-0.1041825 0.18783675 0.61900002 -2.5394518e+38
-0.10302508 0.18783675 0.61900002 -2.5525883e+38
-0.10186766 0.18783675 0.61900002 -2.5790171e+38
-0.10071024 0.18783675 0.61900002 -2.5790696e+38
-0.099552825 0.18783675 0.61900002 -2.5791224e+38
-0.098554358 0.1881402 0.62 -2.5659341e+38
-0.09739507 0.1881402 0.62 -2.5527459e+38
-0.096391007 0.18844365 0.62100005 -2.5527465e+38
-0.095229849 0.18844365 0.62100005 -2.5527469e+38
-0.094220169 0.18874711 0.62200004 -2.5792791e+38
-0.093057141 0.18874711 0.62200004 -2.6059152e+38
-0.09189412 0.18874711 0.62200004 -2.5926227e+38
-0.090876959 0.18905056 0.62300003 -2.5793301e+38
-0.089712061 0.18905056 0.62300003 -2.5793303e+38
-0.088547163 0.18905056 0.62300003 -2.5793305e+38
-0.087522522 0.189354 0.62400001 -2.5925716e+38
-0.085598551 0.19026436 0.62700003 -2.6058637e+38
-0.084560834 0.19056781 0.62800002 -2.6058633e+38
-0.083652146 0.19117472 0.63000005 -2.6458446e+38
-0.082605064 0.19147816 0.63100004 -2.6725334e+38
-0.081554256 0.19178163 0.63200003 -2.6592906e+38
-0.080372535 0.19178163 0.63200003 -2.6726338e+38
-0.079692014 0.19299543 0.63600004 -2.6992729e+38
-0.078626238 0.19329888 0.63700002 -2.7259627e+38
-0.077799849 0.19420923 0.64000005 -2.739411e+38
-0.07672286 0.19451268 0.64100003 -2.7528073e+38
-0.075642131 0.19481614 0.64200002 -2.7395155e+38
-0.074557655 0.19511959 0.64300001 -2.8195819e+38
-0.073469445 0.19542304 0.64400005 -2.8729589e+38
-0.072054207 0.19815411 0.65300006 -2.7933602e+38
-0.070941687 0.19845755 0.65400004 -2.9403048e+38
-0.069825433 0.19876102 0.65500003 -3.0346032e+38
-0.068600699 0.19876102 0.65500003 nan
-0.13774613 0.19387752 0.63500005 -2.6603348e+38
-0.13591363 0.19296157 0.63200003 -2.6336459e+38
-0.1347319 0.19296157 0.63200003 -2.6333859e+38
-0.13418412 0.19387752 0.63500005 -2.5933525e+38
-0.13236846 0.19296157 0.63200003 -2.5932992e+38
-0.13077159 0.19235092 0.63000005 -2.5666103e+38
-0.12835938 0.19051901 0.62400001 -2.5531621e+38
-0.1271926 0.19051901 0.62400001 -2.5263692e+38
-0.12582389 0.1902137 0.62300003 -2.5128697e+38
-0.12465899 0.1902137 0.62300003 -2.4995251e+38
-0.12349409 0.1902137 0.62300003 -2.499576e+38
-0.12213283 0.18990839 0.62200004 -2.49968e+38
-0.12077532 0.18960305 0.62100005 -2.4995766e+38
-0.11961416 0.18960305 0.62100005 -2.4862839e+38
-0.11826225 0.18929774 0.62 -2.4596462e+38
-0.11710297 0.18929774 0.62 -2.4595941e+38
-0.11575668 0.18899243 0.61900002 -2.5260039e+38
-0.11459926 0.18899243 0.61900002 -2.5393481e+38
-0.11344184 0.18899243 0.61900002 -2.5394518e+38
-0.11228442 0.18899243 0.61900002 -2.539452e+38
-0.11094747 0.1886871 0.61800003 -2.5260559e+38
-0.10996959 0.18899243 0.61900002 -2.4994188e+38
-0.10881217 0.18899243 0.61900002 -2.4995226e+38
-0.10765475 0.18899243 0.61900002 -2.5129202e+38
-0.10649733 0.18899243 0.61900002 -2.4995774e+38
-0.10533991 0.18899243 0.61900002 -2.5260571e+38
-0.1041825 0.18899243 0.61900002 -2.5658806e+38
-0.10319151 0.18929774 0.62 -2.5657765e+38
-0.10203222 0.18929774 0.62 -2.5789646e+38
-0.10087293 0.18929774 0.62 -2.5657771e+38
-0.099713646 0.18929774 0.62 -2.5392453e+38
-0.098554358 0.18929774 0.62 -2.5526412e+38
-0.097552165 0.18960305 0.62100005 -2.5394005e+38
-0.096546225 0.18990839 0.62200004 -2.539452e+38
-0.095383197 0.18990839 0.62200004 -2.5395037e+38
-0.094220169 0.18990839 0.62200004 -2.5793292e+38
-0.093057141 0.18990839 0.62200004 -2.6191548e+38
-0.092041858 0.1902137 0.62300003 -2.6058629e+38
-0.090876959 0.1902137 0.62300003 -2.5925708e+38
-0.089856058 0.19051901 0.62400001 -2.5925708e+38
-0.08868929 0.19051901 0.62400001 -2.5925708e+38
-0.087662786 0.19082433 0.625 -2.5926231e+38
-0.086494155 0.19082433 0.625 -2.5926235e+38
-0.085598551 0.19143496 0.62700003 -2.6059154e+38
-0.084560834 0.19174029 0.62800002 -2.6325519e+38
-0.083652146 0.19235092 0.63000005 -2.6459484e+38
-0.082735986 0.19296157 0.63200003 -2.6460006e+38
-0.081812337 0.19357219 0.634 -2.6593446e+38
-0.080754049 0.19387752 0.63500005 -2.6460519e+38
-0.079692014 0.19418284 0.63600004 -2.6726377e+38
-0.078749664 0.19479348 0.63800001 -2.7126194e+38
-0.077799849 0.19540411 0.64000005 -2.7259638e+38
-0.07672286 0.19570944 0.64100003 -2.765997e+38
-0.075642131 0.19601476 0.64200002 -2.7395678e+38
-0.074557655 0.19632007 0.64300001 -2.7796529e+38
-0.073469445 0.19662538 0.64400005 -2.8330301e+38
-0.072054207 0.19937326 0.65300006 -2.740085e+38
-0.070941687 0.19967857 0.65400004 -3.0738505e+38
-0.06971883 0.19967857 0.65400004 -3.1415185e+38
-0.068495966 0.19967857 0.65400004 nan
-0.13634375 0.19475588 0.634 -2.6203009e+38
-0.13515829 0.19475588 0.634 -2.6333859e+38
-0.13439544 0.19537026 0.63600004 -2.5666639e+38
-0.13236846 0.19414152 0.63200003 -2.5666103e+38
-0.13097917 0.19383432 0.63100004 -2.5265252e+38
-0.12938789 0.19321996 0.62900001 -2.5397658e+38
-0.12800795 0.19291277 0.62800002 -2.5264216e+38
-0.12602584 0.19168402 0.62400001 -2.4730973e+38
-0.12485907 0.19168402 0.62400001 -2.4597527e+38
-0.1236923 0.19168402 0.62400001 -2.4863364e+38
-0.12213283 0.19106966 0.62200004 -2.4996806e+38
-0.1209698 0.19106966 0.62200004 -2.5394536e+38
-0.11961416 0.19076246 0.62100005 -2.5128684e+38
-0.118453 0.19076246 0.62100005 -2.4596456e+38
-0.11729185 0.19076246 0.62100005 -2.4729379e+38
-0.11594368 0.19045529 0.62 -2.5260033e+38
-0.11478439 0.19045529 0.62 -2.5393479e+38
-0.1136251 0.19045529 0.62 -2.5260565e+38
-0.11228442 0.1901481 0.61900002 -2.5261088e+38
-0.111127 0.1901481 0.61900002 -2.4995247e+38
-0.10996959 0.1901481 0.61900002 -2.4728356e+38
-0.10881217 0.1901481 0.61900002 -2.4596466e+38
-0.10765475 0.1901481 0.61900002 -2.4995242e+38
-0.10649733 0.1901481 0.61900002 -2.5127652e+38
-0.10533991 0.1901481 0.61900002 -2.5392451e+38
-0.1041825 0.1901481 0.61900002 -2.5923613e+38
-0.10319151 0.19045529 0.62 -2.5791209e+38
-0.10203222 0.19045529 0.62 -2.5391918e+38
-0.10087293 0.19045529 0.62 -2.525952e+38
-0.099874482 0.19076246 0.62100005 -2.5260571e+38
-0.098713323 0.19076246 0.62100005 -2.5394011e+38
-0.097709253 0.19106966 0.62200004 -2.5394007e+38
-0.096546225 0.19106966 0.62200004 -2.539452e+38
-0.095383197 0.19106966 0.62200004 -2.5395031e+38
-0.094371647 0.19137685 0.62300003 -2.5659327e+38
-0.093206748 0.19137685 0.62300003 -2.6057584e+38
-0.092041858 0.19137685 0.62300003 -2.6057588e+38
-0.091022827 0.19168402 0.62400001 -2.605759e+38
-0.090000063 0.19199121 0.625 -2.605759e+38
-0.089115679 0.19260558 0.62700003 -2.6191035e+38
-0.087943308 0.19260558 0.62700003 -2.6324483e+38
-0.086770929 0.19260558 0.62700003 -2.6324485e+38
-0.085735075 0.19291277 0.62800002 -2.6325002e+38
-0.084560834 0.19291277 0.62800002 -2.6325521e+38
-0.083784923 0.19383432 0.63100004 -2.632604e+38
-0.082735986 0.19414152 0.63200003 -2.632604e+38
-0.081812337 0.19475588 0.634 -2.6458446e+38
-0.080881216 0.19537026 0.63600004 -2.6591369e+38
-0.07981731 0.19567744 0.63700002 -2.6592935e+38
-0.078749664 0.19598462 0.63800001 -2.6993788e+38
-0.077799849 0.19659901 0.64000005 -2.7127751e+38
-0.07672286 0.19690618 0.64100003 -2.7928416e+38
-0.075642131 0.19721338 0.64200002 -2.7664645e+38
-0.074557655 0.19752055 0.64300001 -2.7665683e+38
-0.073697612 0.19844212 0.64600003 -2.7798614e+38
-0.071943864 0.20028524 0.65200001 -2.7134489e+38
-0.070941687 0.2008996 0.65400004 -3.2873095e+38
-0.06971883 0.2008996 0.65400004 -3.355134e+38
-0.068495966 0.2008996 0.65400004 nan
-0.13515829 0.19593957 0.634 -2.6601258e+38
-0.13439544 0.19655769 0.63600004 -2.5933517e+38
-0.13236846 0.19532147 0.63200003 -2.5932983e+38
-0.13118672 0.19532147 0.63200003 -2.5266284e+38
-0.1295936 0.19470336 0.63000005 -2.5000447e+38
-0.12841561 0.19470336 0.63000005 -2.4866484e+38
-0.12663174 0.19377621 0.62700003 -2.499734e+38
-0.12545936 0.19377621 0.62700003 -2.4597007e+38
-0.12389053 0.19315809 0.625 -2.4729399e+38
-0.12232918 0.19253999 0.62300003 -2.4862324e+38
-0.1209698 0.19223094 0.62200004 -2.5393504e+38
-0.11980677 0.19223094 0.62200004 -2.5260577e+38
-0.118453 0.19192187 0.62100005 -2.4729393e+38
-0.11729185 0.19192187 0.62100005 -2.4862314e+38
-0.11594368 0.19161282 0.62 -2.5260044e+38
-0.11478439 0.19161282 0.62 -2.5260046e+38
-0.1136251 0.19161282 0.62 -2.5127127e+38
-0.11246581 0.19161282 0.62 -2.5260056e+38
-0.11130653 0.19161282 0.62 -2.5126624e+38
-0.11014724 0.19161282 0.62 -2.4860774e+38
-0.10898795 0.19161282 0.62 -2.4595442e+38
-0.10765475 0.19130377 0.61900002 -2.4594918e+38
-0.10666937 0.19161282 0.62 -2.4728356e+38
-0.10533991 0.19130377 0.61900002 -2.5127121e+38
-0.1041825 0.19130377 0.61900002 -2.5391916e+38
-0.10319151 0.19161282 0.62 -2.5259512e+38
-0.10236137 0.19223094 0.62200004 -2.5126587e+38
-0.10103564 0.19192187 0.62100005 -2.5126595e+38
-0.10019614 0.19253999 0.62300003 -2.5260571e+38
-0.098872282 0.19223094 0.62200004 -2.5394019e+38
-0.097866341 0.19253999 0.62300003 -2.5393504e+38
-0.096701443 0.19253999 0.62300003 -2.5393492e+38
-0.095536545 0.19253999 0.62300003 -2.5393997e+38
-0.094523124 0.19284904 0.62400001 -2.5658812e+38
-0.093505971 0.19315809 0.625 -2.5923627e+38
-0.092189595 0.19284904 0.62400001 -2.5923627e+38
-0.091168702 0.19315809 0.625 -2.5923627e+38
-0.090288058 0.19377621 0.62700003 -2.6057586e+38
-0.089115679 0.19377621 0.62700003 -2.6191548e+38
-0.087943308 0.19377621 0.62700003 -2.6058637e+38
-0.086909324 0.19408524 0.62800002 -2.6058645e+38
-0.085735075 0.19408524 0.62800002 -2.6192081e+38
-0.084560834 0.19408524 0.62800002 -2.6192075e+38
-0.083784923 0.19501241 0.63100004 -2.619259e+38
-0.082735986 0.19532147 0.63200003 -2.6325511e+38
-0.081812337 0.19593957 0.634 -2.6458442e+38
-0.080754049 0.19624862 0.63500005 -2.6457925e+38
-0.079942614 0.19717577 0.63800001 -2.6725849e+38
-0.078996532 0.19779389 0.64000005 -2.7259623e+38
-0.077921413 0.19810294 0.64100003 -2.7260668e+38
-0.076842554 0.198412 0.64200002 -2.8062375e+38
-0.075642131 0.198412 0.64200002 -2.7931523e+38
-0.074557655 0.19872105 0.64300001 -2.7665671e+38
-0.073697612 0.1996482 0.64600003 -2.7398807e+38
-0.071943864 0.20150253 0.65200001 -2.7802817e+38
-0.070941687 0.20212063 0.65400004 nan
-0.06971883 0.20212063 0.65400004 nan
-0.068495966 0.20212063 0.65400004 nan
-0.1347319 0.19650142 0.63200003 -2.6599701e+38
-0.13397282 0.19712326 0.634 -2.5933e+38
-0.13236846 0.19650142 0.63200003 -2.5666621e+38
-0.13097917 0.19619049 0.63100004 -2.5132323e+38
-0.12979931 0.19619049 0.63100004 -2.513181e+38
-0.12841561 0.19587958 0.63000005 -2.5131291e+38
-0.12683371 0.19525772 0.62800002 -2.4996299e+38
-0.12565945 0.19525772 0.62800002 -2.4462002e+38
-0.12428698 0.19494681 0.62700003 -2.4460957e+38
-0.1227219 0.19432497 0.625 -2.4727845e+38
-0.12116428 0.19370314 0.62300003 -2.4861293e+38
-0.11980677 0.19339222 0.62200004 -2.4994735e+38
-0.11864375 0.19339222 0.62200004 -2.4862322e+38
-0.11729185 0.19308129 0.62100005 -2.4862324e+38
-0.11613069 0.19308129 0.62100005 -2.4861289e+38
-0.11496953 0.19308129 0.62100005 -2.4861287e+38
-0.1136251 0.19277038 0.62 -2.48618e+38
-0.11246581 0.19277038 0.62 -2.4861285e+38
-0.11148606 0.19308129 0.62100005 -2.4860776e+38
-0.1103249 0.19308129 0.62100005 -2.4860772e+38
-0.10916375 0.19308129 0.62100005 -2.4728362e+38
-0.1081765 0.19339222 0.62200004 -2.4595436e+38
-0.10701347 0.19339222 0.62200004 -2.4595953e+38
-0.10585044 0.19339222 0.62200004 -2.4861273e+38
-0.10468742 0.19339222 0.62200004 -2.5126589e+38
-0.10352439 0.19339222 0.62200004 -2.5126591e+38
-0.10236137 0.19339222 0.62200004 -2.5126599e+38
-0.10136103 0.19370314 0.62300003 -2.5126604e+38
-0.10019614 0.19370314 0.62300003 -2.5127127e+38
-0.09903124 0.19370314 0.62300003 -2.5260058e+38
-0.097866341 0.19370314 0.62300003 -2.5259547e+38
-0.096701443 0.19370314 0.62300003 -2.5259536e+38
-0.095536545 0.19370314 0.62300003 -2.5260563e+38
-0.094523124 0.19401406 0.62400001 -2.5658816e+38
-0.093505971 0.19432497 0.625 -2.5923627e+38
-0.09233734 0.19432497 0.625 -2.5923623e+38
-0.091168702 0.19432497 0.625 -2.6057582e+38
-0.090288058 0.19494681 0.62700003 -2.605914e+38
-0.089115679 0.19494681 0.62700003 -2.5926736e+38
-0.088083573 0.19525772 0.62800002 -2.5926747e+38
-0.086909324 0.19525772 0.62800002 -2.5793832e+38
-0.085735075 0.19525772 0.62800002 -2.5793828e+38
-0.084695481 0.19556867 0.62900001 -2.5926749e+38
-0.083784923 0.19619049 0.63100004 -2.6059663e+38
-0.082735986 0.19650142 0.63200003 -2.6326026e+38
-0.081812337 0.19712326 0.634 -2.6458961e+38
-0.080754049 0.19743417 0.63500005 -2.6192077e+38
-0.079942614 0.19836693 0.63800001 -2.6724807e+38
-0.078996532 0.19898878 0.64000005 -2.7391502e+38
-0.077921413 0.19929969 0.64100003 -2.7393067e+38
-0.076842554 0.19961062 0.64200002 -2.806029e+38
-0.075759955 0.19992153 0.64300001 -2.7797044e+38
-0.074673608 0.20023245 0.64400005 -2.7397231e+38
-0.073697612 0.2008543 0.64600003 -2.6598664e+38
-0.071943864 0.20271982 0.65200001 -2.9675727e+38
-0.070941687 0.20334165 0.65400004 nan
-0.06971883 0.20334165 0.65400004 nan
-0.068495966 0.20334165 0.65400004 nan
-0.1347319 0.19768137 0.63200003 -2.6600226e+38
-0.13355018 0.19768137 0.63200003 -2.5666116e+38
-0.13236846 0.19768137 0.63200003 -2.5666103e+38
-0.13097917 0.19736858 0.63100004 -2.4998885e+38
-0.12979931 0.19736858 0.63100004 -2.513077e+38
-0.12861945 0.19736858 0.63100004 -2.4863883e+38
-0.12703566 0.19674301 0.62900001 -2.4863366e+38
-0.12565945 0.19643021 0.62800002 -2.4329588e+38
-0.12448521 0.19643021 0.62800002 -2.4328547e+38
-0.1231146 0.19611743 0.62700003 -2.4461992e+38
-0.12116428 0.19486628 0.62300003 -2.4595438e+38
-0.11999939 0.19486628 0.62300003 -2.4595436e+38
-0.11864375 0.19455351 0.62200004 -2.4860239e+38
-0.11748072 0.19455351 0.62200004 -2.4993689e+38
-0.1163177 0.19455351 0.62200004 -2.4727859e+38
-0.11496953 0.1942407 0.62100005 -2.4594409e+38
-0.11380837 0.1942407 0.62100005 -2.4860239e+38
-0.11264722 0.1942407 0.62100005 -2.4993687e+38
-0.11148606 0.1942407 0.62100005 -2.4992658e+38
-0.11050256 0.19455351 0.62200004 -2.486077e+38
-0.10933953 0.19455351 0.62200004 -2.4728878e+38
-0.1081765 0.19455351 0.62200004 -2.4729395e+38
-0.10701347 0.19455351 0.62200004 -2.4729385e+38
-0.10585044 0.19455351 0.62200004 -2.4862303e+38
-0.10485572 0.19486628 0.62300003 -2.512762e+38
-0.10369083 0.19486628 0.62300003 -2.4860222e+38
-0.10252593 0.19486628 0.62300003 -2.499264e+38
-0.10152373 0.19517908 0.62400001 -2.5126084e+38
-0.10051779 0.19549185 0.625 -2.4993161e+38
-0.099349156 0.19549185 0.625 -2.4993166e+38
-0.098180525 0.19549185 0.625 -2.5126614e+38
-0.097322315 0.19611743 0.62700003 -2.5126612e+38
-0.095843248 0.19549185 0.625 -2.5127127e+38
-0.09467461 0.19549185 0.625 -2.5392974e+38
-0.093805186 0.19611743 0.62700003 -2.5658822e+38
-0.092632815 0.19611743 0.62700003 -2.5791737e+38
-0.091460437 0.19611743 0.62700003 -2.6057578e+38
-0.090288058 0.19611743 0.62700003 -2.6058619e+38
-0.089257814 0.19643021 0.62800002 -2.5926215e+38
-0.088083573 0.19643021 0.62800002 -2.579382e+38
-0.086909324 0.19643021 0.62800002 -2.5660903e+38
-0.0858716 0.19674301 0.62900001 -2.5660899e+38
-0.084695481 0.19674301 0.62900001 -2.5661414e+38
-0.083917707 0.19768137 0.63200003 -2.5926738e+38
-0.082735986 0.19768137 0.63200003 -2.6192584e+38
-0.081812337 0.19830693 0.634 -2.632603e+38
-0.080881216 0.19893251 0.63600004 -2.6059144e+38
-0.078996532 0.20018366 0.64000005 -2.6992729e+38
-0.077921413 0.20049645 0.64100003 -2.7259619e+38
-0.076962247 0.20112202 0.64300001 -2.7526507e+38
-0.075877771 0.20143481 0.64400005 -2.7262248e+38
-0.074905515 0.20206039 0.64600003 -2.6729522e+38
-0.073811695 0.20237316 0.64700001 -2.5666657e+38
-0.072714135 0.20268595 0.648 -3.0338242e+38
-0.071943864 0.20393711 0.65200001 -3.1948436e+38
-0.070833221 0.20424989 0.65300006 nan
-0.069612227 0.20424989 0.65300006 nan
-0.1347319 0.19886132 0.63200003 -2.6735232e+38
-0.13355018 0.19886132 0.63200003 -2.5400272e+38
-0.13236846 0.19886132 0.63200003 -2.5531112e+38
-0.13118672 0.19886132 0.63200003 -2.5130258e+38
-0.12979931 0.19854666 0.63100004 -2.513077e+38
-0.12861945 0.19854666 0.63100004 -2.4997847e+38
-0.12723763 0.19823201 0.63000005 -2.4464602e+38
-0.12585954 0.19791736 0.62900001 -2.4197193e+38
-0.12448521 0.19760269 0.62800002 -2.4595442e+38
-0.1231146 0.19728805 0.62700003 -2.4461996e+38
-0.12135877 0.19634408 0.62400001 -2.4462509e+38
-0.11999939 0.19602944 0.62300003 -2.4461987e+38
-0.1188345 0.19602944 0.62300003 -2.432802e+38
-0.1176696 0.19602944 0.62300003 -2.4461468e+38
-0.1163177 0.19571479 0.62200004 -2.4461487e+38
-0.11515467 0.19571479 0.62200004 -2.4460442e+38
-0.11380837 0.19540012 0.62100005 -2.4859196e+38
-0.11282861 0.19571479 0.62200004 -2.4992123e+38
-0.11166558 0.19571479 0.62200004 -2.5125571e+38
-0.11050256 0.19571479 0.62200004 -2.512661e+38
-0.10933953 0.19571479 0.62200004 -2.4595953e+38
-0.1081765 0.19571479 0.62200004 -2.4462505e+38
-0.10718552 0.19602944 0.62300003 -2.4463012e+38
-0.10602062 0.19602944 0.62300003 -2.4728857e+38
-0.10485572 0.19602944 0.62300003 -2.4993658e+38
-0.10385726 0.19634408 0.62400001 -2.4726261e+38
-0.1026905 0.19634408 0.62400001 -2.4858677e+38
-0.10136103 0.19602944 0.62300003 -2.4992121e+38
-0.10051779 0.19665873 0.625 -2.4859196e+38
-0.099667072 0.19728805 0.62700003 -2.499264e+38
-0.098494694 0.19728805 0.62700003 -2.5126606e+38
-0.097322315 0.19728805 0.62700003 -2.5126606e+38
-0.096149944 0.19728805 0.62700003 -2.5126606e+38
-0.094977565 0.19728805 0.62700003 -2.5259534e+38
-0.093805186 0.19728805 0.62700003 -2.5259541e+38
-0.092632815 0.19728805 0.62700003 -2.5524853e+38
-0.091606312 0.19760269 0.62800002 -2.5923613e+38
-0.090288058 0.19728805 0.62700003 -2.5791735e+38
-0.089257814 0.19760269 0.62800002 -2.5659335e+38
-0.088083573 0.19760269 0.62800002 -2.566038e+38
-0.087047711 0.19791736 0.62900001 -2.5527459e+38
-0.0858716 0.19791736 0.62900001 -2.5527972e+38
-0.084964782 0.19854666 0.63100004 -2.5527966e+38
-0.083917707 0.19886132 0.63200003 -2.5527445e+38
-0.082997799 0.19949062 0.634 -2.579381e+38
-0.081812337 0.19949062 0.634 -2.6193101e+38
-0.080754049 0.19980527 0.63500005 -2.6326026e+38
-0.078996532 0.20137855 0.64000005 -2.672792e+38
-0.077921413 0.20169319 0.64100003 -2.7126699e+38
-0.076962247 0.20232251 0.64300001 -2.7126181e+38
-0.075877771 0.20263717 0.64400005 -2.619573e+38
-0.074905515 0.20326647 0.64600003 -2.6330742e+38
-0.073811695 0.20358112 0.64700001 -2.6471477e+38
-0.072714135 0.20389578 0.648 -3.2078213e+38
-0.071943864 0.2051544 0.65200001 nan
-0.070724741 0.2051544 0.65200001 nan
-0.069505617 0.2051544 0.65200001 nan
-0.13451873 0.19972473 0.63100004 -2.6734189e+38
-0.13355018 0.20004128 0.63200003 -2.5266826e+38
-0.13215902 0.19972473 0.63100004 -2.5263709e+38
-0.13118672 0.20004128 0.63200003 -2.4863376e+38
-0.130005 0.20004128 0.63200003 -2.4465121e+38
-0.12861945 0.19972473 0.63100004 -2.4598565e+38
-0.12723763 0.19940822 0.63000005 -2.4729922e+38
-0.12585954 0.1990917 0.62900001 -2.4595961e+38
-0.12448521 0.19877517 0.62800002 -2.4728371e+38
-0.12331096 0.19877517 0.62800002 -2.4329075e+38
-0.12155326 0.19782561 0.625 -2.4329065e+38
-0.12019201 0.1975091 0.62400001 -2.4329061e+38
-0.1188345 0.19719258 0.62300003 -2.4195087e+38
-0.1176696 0.19719258 0.62300003 -2.4194572e+38
-0.1165047 0.19719258 0.62300003 -2.4726277e+38
-0.11515467 0.19687606 0.62200004 -2.4593353e+38
-0.11399164 0.19687606 0.62200004 -2.4461456e+38
-0.11282861 0.19687606 0.62200004 -2.4593864e+38
-0.11166558 0.19687606 0.62200004 -2.4992642e+38
-0.11050256 0.19687606 0.62200004 -2.4993679e+38
-0.10933953 0.19687606 0.62200004 -2.4463018e+38
-0.1081765 0.19687606 0.62200004 -2.4329572e+38
-0.10718552 0.19719258 0.62300003 -2.4329568e+38
-0.10602062 0.19719258 0.62300003 -2.4462491e+38
-0.10485572 0.19719258 0.62300003 -2.4461969e+38
-0.10385726 0.1975091 0.62400001 -2.4460416e+38
-0.1026905 0.1975091 0.62400001 -2.4858677e+38
-0.10168643 0.19782561 0.625 -2.4858677e+38
-0.10051779 0.19782561 0.625 -2.4858677e+38
-0.099667072 0.19845866 0.62700003 -2.499264e+38
-0.098494694 0.19845866 0.62700003 -2.5126084e+38
-0.097322315 0.19845866 0.62700003 -2.5125569e+38
-0.096149944 0.19845866 0.62700003 -2.5125056e+38
-0.094977565 0.19845866 0.62700003 -2.5125062e+38
-0.093954802 0.19877517 0.62800002 -2.512507e+38
-0.09278056 0.19877517 0.62800002 -2.5125046e+38
-0.091606312 0.19877517 0.62800002 -2.5391916e+38
-0.090432063 0.19877517 0.62800002 -2.5392964e+38
-0.089257814 0.19877517 0.62800002 -2.5127127e+38
-0.088083573 0.19877517 0.62800002 -2.5260571e+38
-0.087047711 0.1990917 0.62900001 -2.5260571e+38
-0.086008117 0.19940822 0.63000005 -2.5393486e+38
-0.084830128 0.19940822 0.63000005 -2.5526921e+38
-0.083784923 0.19972473 0.63100004 -2.5527964e+38
-0.082997799 0.20067431 0.634 -2.5661927e+38
-0.081812337 0.20067431 0.634 -2.6060178e+38
-0.080754049 0.20099083 0.63500005 -2.6459472e+38
-0.079942614 0.20194039 0.63800001 -2.6593442e+38
-0.079119965 0.20288995 0.64100003 -2.6726888e+38
-0.077921413 0.20288995 0.64100003 -2.6859305e+38
-0.076962247 0.203523 0.64300001 -2.6325016e+38
-0.075877771 0.20383951 0.64400005 -2.4861825e+38
-0.074905515 0.20447256 0.64600003 -2.7932604e+38
-0.073811695 0.20478907 0.64700001 -2.9277462e+38
-0.072826348 0.20542213 0.64900005 nan
-0.071943864 0.20637169 0.65200001 nan
-0.070724741 0.20637169 0.65200001 nan
-0.13215902 0.20090282 0.63100004 -2.5262155e+38
-0.13118672 0.20122123 0.63200003 -2.4995786e+38
-0.130005 0.20122123 0.63200003 -2.4729922e+38
-0.12861945 0.20090282 0.63100004 -2.472992e+38
-0.1274396 0.20090282 0.63100004 -2.4462509e+38
-0.12605964 0.20058444 0.63000005 -2.446147e+38
-0.12468342 0.20026606 0.62900001 -2.4859212e+38
-0.12350731 0.20026606 0.62900001 -2.4725766e+38
-0.12194223 0.19962928 0.62700003 -2.4726273e+38
-0.12076985 0.19962928 0.62700003 -2.459387e+38
-0.11921599 0.19899249 0.625 -2.4062168e+38
-0.11785847 0.19867411 0.62400001 -2.4195093e+38
-0.1166917 0.19867411 0.62400001 -2.4328022e+38
-0.1153398 0.19835572 0.62300003 -2.4328018e+38
-0.1141749 0.19835572 0.62300003 -2.4196124e+38
-0.11301 0.19835572 0.62300003 -2.4329053e+38
-0.11184511 0.19835572 0.62300003 -2.4461466e+38
-0.11068021 0.19835572 0.62300003 -2.4461983e+38
-0.10951532 0.19835572 0.62300003 -2.4329576e+38
-0.10835042 0.19835572 0.62300003 -2.419613e+38
-0.10718552 0.19835572 0.62300003 -2.4329568e+38
-0.10602062 0.19835572 0.62300003 -2.4329568e+38
-0.10485572 0.19835572 0.62300003 -2.4196124e+38
-0.10385726 0.19867411 0.62400001 -2.4328012e+38
-0.1026905 0.19867411 0.62400001 -2.4992121e+38
-0.10168643 0.19899249 0.625 -2.4992636e+38
-0.10051779 0.19899249 0.625 -2.499263e+38
-0.099667072 0.19962928 0.62700003 -2.4992634e+38
-0.098494694 0.19962928 0.62700003 -2.499264e+38
-0.09747754 0.19994766 0.62800002 -2.5125573e+38
-0.096149944 0.19962928 0.62700003 -2.5125062e+38
-0.09512905 0.19994766 0.62800002 -2.5124543e+38
-0.093954802 0.19994766 0.62800002 -2.5125066e+38
-0.09278056 0.19994766 0.62800002 -2.4859198e+38
-0.091606312 0.19994766 0.62800002 -2.4859699e+38
-0.090432063 0.19994766 0.62800002 -2.5126595e+38
-0.089399949 0.20026606 0.62900001 -2.5126084e+38
-0.08822383 0.20026606 0.62900001 -2.5126606e+38
-0.087186098 0.20058444 0.63000005 -2.5260571e+38
-0.086008117 0.20058444 0.63000005 -2.5260567e+38
-0.084964782 0.20090282 0.63100004 -2.5393488e+38
-0.083917707 0.20122123 0.63200003 -2.5660897e+38
-0.082997799 0.20185798 0.634 -2.5927783e+38
-0.081941381 0.20217638 0.63500005 -2.6060187e+38
-0.080881216 0.20249477 0.63600004 -2.6193111e+38
-0.080193222 0.20376831 0.64000005 -2.6326038e+38
-0.079119965 0.20408671 0.64100003 -2.6459484e+38
-0.078042977 0.2044051 0.64200002 -2.6060191e+38
-0.076962247 0.20472349 0.64300001 -2.5392968e+38
-0.075877771 0.20504187 0.64400005 -2.5397672e+38
-0.074905515 0.20567866 0.64600003 -3.0470114e+38
-0.073811695 0.20599703 0.64700001 -3.2614078e+38
-0.072714135 0.20631541 0.648 nan
-0.071943864 0.20758899 0.65200001 nan
-0.13118672 0.20240118 0.63200003 -2.4863916e+38
-0.130005 0.20240118 0.63200003 -2.473252e+38
-0.12882328 0.20240118 0.63200003 -2.4465111e+38
-0.1274396 0.20208091 0.63100004 -2.4729904e+38
-0.12605964 0.20176066 0.63000005 -2.4329055e+38
-0.12468342 0.20144041 0.62900001 -2.4327505e+38
-0.12350731 0.20144041 0.62900001 -2.4328024e+38
-0.12194223 0.2007999 0.62700003 -2.4460945e+38
-0.12076985 0.2007999 0.62700003 -2.4461466e+38
-0.11959747 0.2007999 0.62700003 -2.4194588e+38
-0.11804735 0.20015937 0.625 -2.4195105e+38
-0.11687871 0.20015937 0.625 -2.4195617e+38
-0.11552493 0.19983913 0.62400001 -2.4195613e+38
-0.11435816 0.19983913 0.62400001 -2.4329568e+38
-0.11301 0.19951887 0.62300003 -2.4330089e+38
-0.11184511 0.19951887 0.62300003 -2.4329053e+38
-0.11068021 0.19951887 0.62300003 -2.4196128e+38
-0.10951532 0.19951887 0.62300003 -2.4196128e+38
-0.10835042 0.19951887 0.62300003 -2.4195606e+38
-0.10718552 0.19951887 0.62300003 -2.4196124e+38
-0.10602062 0.19951887 0.62300003 -2.4196124e+38
-0.10502403 0.19983913 0.62400001 -2.4196124e+38
-0.10385726 0.19983913 0.62400001 -2.4195606e+38
-0.10285507 0.20015937 0.625 -2.4461456e+38
-0.10201182 0.2007999 0.62700003 -2.4594371e+38
-0.10083945 0.2007999 0.62700003 -2.4859687e+38
-0.099667072 0.2007999 0.62700003 -2.4727292e+38
-0.098651789 0.20112014 0.62800002 -2.45949e+38
-0.09747754 0.20112014 0.62800002 -2.4594908e+38
-0.096303299 0.20112014 0.62800002 -2.4593878e+38
-0.09512905 0.20112014 0.62800002 -2.4859724e+38
-0.093954802 0.20112014 0.62800002 -2.5125571e+38
-0.09278056 0.20112014 0.62800002 -2.499264e+38
-0.091752179 0.20144041 0.62900001 -2.4993153e+38
-0.09057606 0.20144041 0.62900001 -2.5126606e+38
-0.089399949 0.20144041 0.62900001 -2.5126614e+38
-0.08822383 0.20144041 0.62900001 -2.512661e+38
-0.087186098 0.20176066 0.63000005 -2.5394015e+38
-0.086144634 0.20208091 0.63100004 -2.5394015e+38
-0.085099436 0.20240118 0.63200003 -2.5394015e+38
-0.083917707 0.20240118 0.63200003 -2.5526944e+38
-0.083259627 0.20368218 0.63600004 -2.5660392e+38
-0.082328498 0.2043227 0.63800001 -2.5927272e+38
-0.081389904 0.20496321 0.64000005 -2.5794347e+38
-0.080318518 0.20528346 0.64100003 -2.6060203e+38
-0.079119965 0.20528346 0.64100003 -2.6059166e+38
-0.078042977 0.20560372 0.64200002 -2.5128169e+38
-0.076962247 0.20592397 0.64300001 -2.7397233e+38
-0.075877771 0.20624423 0.64400005 -2.887242e+38
-0.074905515 0.20688474 0.64600003 -3.3679012e+38
-0.073811695 0.20720498 0.64700001 nan
-0.072938561 0.20816575 0.65000004 nan
-0.13735384 0.20937932 0.65000004 -2.4602202e+38
-0.13041642 0.20422536 0.634 -2.4466164e+38
-0.12882328 0.20358112 0.63200003 -2.4198231e+38
-0.1274396 0.20325899 0.63100004 -2.4463012e+38
-0.12605964 0.20293687 0.63000005 -2.4196124e+38
-0.12468342 0.20261475 0.62900001 -2.4195087e+38
-0.12350731 0.20261475 0.62900001 -2.4195089e+38
-0.12213672 0.20229262 0.62800002 -2.4062173e+38
-0.12076985 0.2019705 0.62700003 -2.4195617e+38
-0.11959747 0.2019705 0.62700003 -2.4195101e+38
-0.11842509 0.2019705 0.62700003 -2.4195103e+38
-0.11725272 0.2019705 0.62700003 -2.419511e+38
-0.11571007 0.20132625 0.625 -2.4195105e+38
-0.11454144 0.20132625 0.625 -2.4329057e+38
-0.1133728 0.20132625 0.625 -2.4462505e+38
-0.11202464 0.20100413 0.62400001 -2.432855e+38
-0.11085787 0.20100413 0.62400001 -2.4062177e+38
-0.10951532 0.20068201 0.62300003 -2.4195613e+38
-0.10835042 0.20068201 0.62300003 -2.4328537e+38
-0.10735756 0.20100413 0.62400001 -2.4593347e+38
-0.1061908 0.20100413 0.62400001 -2.459386e+38
-0.10502403 0.20100413 0.62400001 -2.4593852e+38
-0.1040237 0.20132625 0.625 -2.432801e+38
-0.10285507 0.20132625 0.625 -2.4062688e+38
-0.10201182 0.2019705 0.62700003 -2.4328529e+38
-0.10083945 0.2019705 0.62700003 -2.4460925e+38
-0.099667072 0.2019705 0.62700003 -2.4461446e+38
-0.098651789 0.20229262 0.62800002 -2.4196124e+38
-0.09747754 0.20229262 0.62800002 -2.419613e+38
-0.096303299 0.20229262 0.62800002 -2.4195619e+38
-0.095280528 0.20261475 0.62900001 -2.459387e+38
-0.094104409 0.20261475 0.62900001 -2.4992121e+38
-0.093076035 0.20293687 0.63000005 -2.4992634e+38
-0.091898046 0.20293687 0.63000005 -2.5126593e+38
-0.090720057 0.20293687 0.63000005 -2.5127644e+38
-0.089684203 0.20325899 0.63100004 -2.499421e+38
-0.088504344 0.20325899 0.63100004 -2.4994206e+38
-0.087324493 0.20325899 0.63100004 -2.5260571e+38
-0.086281158 0.20358112 0.63200003 -2.5527459e+38
-0.08536873 0.20422536 0.634 -2.5527459e+38
-0.084316052 0.20454748 0.63500005 -2.5393504e+38
-0.083390534 0.20519173 0.63700002 -2.5526952e+38
-0.082328498 0.20551385 0.63800001 -2.5660388e+38
-0.081389904 0.20615809 0.64000005 -2.592727e+38
-0.080318518 0.20648021 0.64100003 -2.5795909e+38
-0.079119965 0.20648021 0.64100003 -2.5263171e+38
-0.078042977 0.20680234 0.64200002 -2.5532655e+38
-0.076962247 0.20712446 0.64300001 -2.9537539e+38
-0.076113418 0.20809083 0.64600003 -3.2211653e+38
-0.074905515 0.20809083 0.64600003 nan
-0.073811695 0.20841295 0.64700001 nan
-0.13978459 0.21059287 0.65000004 -2.6619498e+38
-0.13856921 0.21059287 0.65000004 -2.6212386e+38
-0.13714251 0.21026888 0.64900005 -2.3809872e+38
-0.135929 0.21026888 0.64900005 -2.4735137e+38
-0.13123924 0.20670499 0.63800001 -2.4198758e+38
-0.12984246 0.20638101 0.63700002 -2.4064791e+38
-0.12844941 0.20605703 0.63600004 -2.4329568e+38
-0.12706012 0.20573303 0.63500005 -2.4062678e+38
-0.12567456 0.20540905 0.634 -2.4062148e+38
-0.12409638 0.20476107 0.63200003 -2.4328517e+38
-0.1223312 0.2037891 0.62900001 -2.4062173e+38
-0.12096247 0.2034651 0.62800002 -2.4062173e+38
-0.11978822 0.2034651 0.62800002 -2.4062173e+38
-0.11861398 0.2034651 0.62800002 -2.4062175e+38
-0.11743973 0.2034651 0.62800002 -2.4062179e+38
-0.11626548 0.2034651 0.62800002 -2.4062177e+38
-0.11490797 0.20314112 0.62700003 -2.4195617e+38
-0.11373559 0.20314112 0.62700003 -2.446199e+38
-0.11256322 0.20314112 0.62700003 -2.4328558e+38
-0.11139084 0.20314112 0.62700003 -2.4194588e+38
-0.11021846 0.20314112 0.62700003 -2.4195617e+38
-0.10904609 0.20314112 0.62700003 -2.4461987e+38
-0.10787371 0.20314112 0.62700003 -2.4460957e+38
-0.10636098 0.20249313 0.625 -2.4460422e+38
-0.10519234 0.20249313 0.625 -2.459332e+38
-0.10435658 0.20314112 0.62700003 -2.4460407e+38
-0.10334878 0.2034651 0.62800002 -2.4062173e+38
-0.10217453 0.2034651 0.62800002 -2.406217e+38
-0.10100028 0.2034651 0.62800002 -2.4195091e+38
-0.099826038 0.2034651 0.62800002 -2.4195608e+38
-0.098651789 0.2034651 0.62800002 -2.4196124e+38
-0.097632758 0.2037891 0.62900001 -2.4195606e+38
-0.096456639 0.2037891 0.62900001 -2.432801e+38
-0.095432006 0.2041131 0.63000005 -2.4593858e+38
-0.094254017 0.2041131 0.63000005 -2.4859184e+38
-0.093223773 0.20443708 0.63100004 -2.4859699e+38
-0.092043914 0.20443708 0.63100004 -2.5260023e+38
-0.09100806 0.20476107 0.63200003 -2.4995226e+38
-0.089826338 0.20476107 0.63200003 -2.4595943e+38
-0.088925131 0.20540905 0.634 -2.4595427e+38
-0.087878056 0.20573303 0.63500005 -2.48618e+38
-0.086827241 0.20605703 0.63600004 -2.5261092e+38
-0.085772686 0.20638101 0.63700002 -2.5394015e+38
-0.08471439 0.20670499 0.63800001 -2.526006e+38
-0.083783269 0.20735298 0.64000005 -2.5392471e+38
-0.082715631 0.20767696 0.64100003 -2.5126103e+38
-0.081517071 0.20767696 0.64100003 -2.4860255e+38
-0.080318518 0.20767696 0.64100003 -2.4196679e+38
-0.079243399 0.20800096 0.64200002 -2.6868163e+38
-0.07816454 0.20832495 0.64300001 -2.927534e+38
-0.077081934 0.20864893 0.64400005 -3.3014366e+38
-0.076113418 0.20929691 0.64600003 nan
-0.074905515 0.20929691 0.64600003 nan
-0.1322246 0.2075703 0.63700002 -2.3404329e+38
-0.13103354 0.2075703 0.63700002 -2.4064294e+38
-0.12984246 0.2075703 0.63700002 -2.3930846e+38
-0.12865138 0.2075703 0.63700002 -2.3931848e+38
-0.12726021 0.20724444 0.63600004 -2.3663917e+38
-0.12587278 0.20691858 0.63500005 -2.4061635e+38
-0.1244891 0.20659272 0.634 -2.4328523e+38
-0.12291465 0.20594102 0.63200003 -2.4195617e+38
-0.12115508 0.20496346 0.62900001 -2.406217e+38
-0.11997896 0.20496346 0.62900001 -2.4061643e+38
-0.11861398 0.20463759 0.62800002 -2.4061645e+38
-0.11743973 0.20463759 0.62800002 -2.4062173e+38
-0.11626548 0.20463759 0.62800002 -2.4062173e+38
-0.11509124 0.20463759 0.62800002 -2.4062173e+38
-0.11391699 0.20463759 0.62800002 -2.4195101e+38
-0.11274274 0.20463759 0.62800002 -2.4327517e+38
-0.1115685 0.20463759 0.62800002 -2.432699e+38
-0.11021846 0.20431174 0.62700003 -2.445886e+38
-0.10922001 0.20463759 0.62800002 -2.4459387e+38
-0.10787371 0.20431174 0.62700003 -2.446044e+38
-0.10670133 0.20431174 0.62700003 -2.4328028e+38
-0.10519234 0.20366003 0.625 -2.4195085e+38
-0.10452302 0.20463759 0.62800002 -2.4195089e+38
-0.10334878 0.20463759 0.62800002 -2.3928728e+38
-0.10233723 0.20496346 0.62900001 -2.3928207e+38
