# .PCD v0.7 - Point Cloud Data file format
VERSION 0.7
FIELDS x y z rgb
SIZE 4 4 4 4
TYPE F F F F
COUNT 1 1 1 1
WIDTH 985
HEIGHT 1
VIEWPOINT 0 0 0 1 0 0 0
POINTS 985
DATA ascii
0.2658712 -0.073628508 0.71100003 -2.3394413e+38
0.26795226 -0.073835626 0.71300006 -2.3527336e+38
0.26853007 -0.073628508 0.71100003 -2.3527336e+38
0.26985952 -0.073628508 0.71100003 -2.3527336e+38
0.27118894 -0.073628508 0.71100003 -2.3128567e+38
0.2725184 -0.073628508 0.71100003 -2.2995644e+38
0.27346268 -0.073524952 0.71000004 -2.2995644e+38
0.27479026 -0.073524952 0.71000004 -2.2995644e+38
0.27728453 -0.073835626 0.71300006 -2.3394413e+38
0.27783617 -0.073628508 0.71100003 -2.3394413e+38
0.27995089 -0.073835626 0.71300006 -2.3527336e+38
0.28128406 -0.073835626 0.71300006 -2.3660258e+38
0.28261727 -0.073835626 0.71300006 -2.3793181e+38
0.28554341 -0.074249841 0.71700001 -2.3793181e+38
0.28568372 -0.073939174 0.71400005 -2.4059027e+38
0.22132733 -0.076673701 0.75400001 nan
0.22214636 -0.076470323 0.75200003 nan
0.22295792 -0.076266944 0.75000006 nan
0.22406113 -0.076165259 0.74900001 nan
0.22335452 -0.07545343 0.74200004 nan
0.22383326 -0.075148366 0.73900002 nan
0.22491029 -0.075046673 0.73800004 -3.0879301e+38
0.22567697 -0.074843295 0.73600006 -2.9800742e+38
0.22643617 -0.074639916 0.73400003 -2.2597916e+38
0.22780861 -0.074639916 0.73400003 -2.4723641e+38
0.22886883 -0.074538223 0.73300004 -2.5919946e+38
0.22961119 -0.074334852 0.73100001 -2.6185792e+38
0.23066205 -0.074233159 0.73000002 -2.5919946e+38
0.23139133 -0.074029781 0.72800004 -2.5787023e+38
0.23243283 -0.073928088 0.72700006 -2.6185792e+38
0.23314904 -0.073724709 0.72500002 -2.6318733e+38
0.23385774 -0.073521331 0.72300005 -2.6318733e+38
0.23488429 -0.073419645 0.72200006 -2.5787029e+38
0.23623431 -0.073419645 0.72200006 -2.5654104e+38
0.23692618 -0.073216267 0.72000003 -2.5122409e+38
0.23827246 -0.073216267 0.72000003 -2.4590718e+38
0.23928593 -0.073114581 0.71900004 -2.4989486e+38
0.23996097 -0.072911195 0.71700001 -2.5255332e+38
0.24130164 -0.072911195 0.71700001 -2.56541e+38
0.2426423 -0.072911195 0.71700001 -2.6185794e+38
0.24364267 -0.07280951 0.71600002 -2.6185816e+38
0.24429716 -0.072606131 0.71400005 -2.5388269e+38
0.2456322 -0.072606131 0.71400005 -2.4856566e+38
0.24696726 -0.072606131 0.71400005 -2.4856564e+38
0.24830231 -0.072606131 0.71400005 -2.4590724e+38
0.24963737 -0.072606131 0.71400005 -2.4989498e+38
0.2506209 -0.072504446 0.71300006 -2.4723663e+38
0.25230747 -0.072606131 0.71400005 -2.4723665e+38
0.2536425 -0.072606131 0.71400005 -2.4590726e+38
0.25462046 -0.072504446 0.71300006 -2.4590724e+38
0.25595364 -0.072504446 0.71300006 -2.4590724e+38
0.25728682 -0.072504446 0.71300006 -2.4457799e+38
0.25861999 -0.072504446 0.71300006 -2.3926104e+38
0.25995317 -0.072504446 0.71300006 -2.3793181e+38
0.26055342 -0.072301067 0.71100003 -2.3793181e+38
0.26261955 -0.072504446 0.71300006 -2.3660258e+38
0.26432291 -0.072606131 0.71400005 -2.3527336e+38
0.26528591 -0.072504446 0.71300006 -2.3394413e+38
0.26661909 -0.072504446 0.71300006 -2.2995644e+38
0.26795226 -0.072504446 0.71300006 -2.2862722e+38
0.26928544 -0.072504446 0.71300006 -2.3394413e+38
0.27061862 -0.072504446 0.71300006 -2.3527336e+38
0.27195182 -0.072504446 0.71300006 -2.3527336e+38
0.273285 -0.072504446 0.71300006 -2.3527336e+38
0.27384785 -0.072301067 0.71100003 -2.3527336e+38
0.27595136 -0.072504446 0.71300006 -2.3527336e+38
0.27728453 -0.072504446 0.71300006 -2.3527336e+38
0.27861771 -0.072504446 0.71300006 -2.3527336e+38
0.28034353 -0.072606131 0.71400005 -2.3527336e+38
0.28167859 -0.072606131 0.71400005 -2.3660258e+38
0.28380638 -0.07280951 0.71600002 -2.3793181e+38
0.28554341 -0.072911195 0.71700001 -2.3793181e+38
0.28568372 -0.072606131 0.71400005 -2.4324872e+38
0.28701878 -0.072606131 0.71400005 -2.4590718e+38
0.22137584 -0.075765081 0.75900006 nan
0.22162087 -0.075365797 0.75500005 nan
0.22273718 -0.075265981 0.75400001 nan
0.22355247 -0.075066335 0.75200003 nan
0.22406113 -0.074766867 0.74900001 nan
0.22335452 -0.074068107 0.74200004 nan
0.22443902 -0.073968284 0.74100006 nan
0.22491029 -0.073668815 0.73800004 -3.1010097e+38
0.22567697 -0.073469177 0.73600006 -2.8061322e+38
0.22705317 -0.073469177 0.73600006 -2.2331552e+38
0.22780861 -0.073269531 0.73400003 -2.3926104e+38
0.22886883 -0.073169708 0.73300004 -2.5388267e+38
0.23023941 -0.073169708 0.73300004 -2.5919946e+38
0.23097803 -0.07297007 0.73100001 -2.5919946e+38
0.23139133 -0.072670594 0.72800004 -2.5919946e+38
0.23243283 -0.072570778 0.72700006 -2.6185792e+38
0.23314904 -0.072371133 0.72500002 -2.6185802e+38
0.23450466 -0.072371133 0.72500002 -2.5919954e+38
0.23520961 -0.072171479 0.72300005 -2.5787029e+38
0.23623431 -0.072071664 0.72200006 -2.5654104e+38
0.23758432 -0.072071664 0.72200006 -2.5388255e+38
0.23827246 -0.071872018 0.72000003 -2.4856564e+38
0.23928593 -0.071772195 0.71900004 -2.4856564e+38
0.24063033 -0.071772195 0.71900004 -2.5255332e+38
0.24130164 -0.07157255 0.71700001 -2.5255332e+38
0.2426423 -0.07157255 0.71700001 -2.5255332e+38
0.24364267 -0.071472734 0.71600002 -2.5255332e+38
0.24498147 -0.071472734 0.71600002 -2.4856564e+38
0.2456322 -0.071273088 0.71400005 -2.4989486e+38
0.24696726 -0.071273088 0.71400005 -2.4856564e+38
0.24830231 -0.071273088 0.71400005 -2.4590718e+38
0.24963737 -0.071273088 0.71400005 -2.4590718e+38
0.2506209 -0.071173266 0.71300006 -2.4723649e+38
0.25230747 -0.071273088 0.71400005 -2.4457799e+38
0.2536425 -0.071273088 0.71400005 -2.4457795e+38
0.25497755 -0.071273088 0.71400005 -2.4457795e+38
0.25631261 -0.071273088 0.71400005 -2.4590718e+38
0.25728682 -0.071173266 0.71300006 -2.4723641e+38
0.25861999 -0.071173266 0.71300006 -2.4059027e+38
0.25995317 -0.071173266 0.71300006 -2.3793181e+38
0.26128638 -0.071173266 0.71300006 -2.3793181e+38
0.26261955 -0.071173266 0.71300006 -2.3660258e+38
0.26432291 -0.071273088 0.71400005 -2.3660258e+38
0.26528591 -0.071173266 0.71300006 -2.3527336e+38
0.26699302 -0.071273088 0.71400005 -2.3527336e+38
0.26832807 -0.071273088 0.71400005 -2.3660258e+38
0.26928544 -0.071173266 0.71300006 -2.3793181e+38
0.27061862 -0.071173266 0.71300006 -2.3926104e+38
0.27233323 -0.071273088 0.71400005 -2.4324872e+38
0.273285 -0.071173266 0.71300006 -2.4457795e+38
0.27461818 -0.071173266 0.71300006 -2.4059027e+38
0.27633837 -0.071273088 0.71400005 -2.3793181e+38
0.27767342 -0.071273088 0.71400005 -2.3793181e+38
0.27979001 -0.071472734 0.71600002 -2.3793181e+38
0.28112879 -0.071472734 0.71600002 -2.3793181e+38
0.2828621 -0.07157255 0.71700001 -2.3793181e+38
0.28499553 -0.071772195 0.71900004 -2.3926104e+38
0.28673816 -0.071872018 0.72000003 -2.419195e+38
0.28808445 -0.071872018 0.72000003 -2.4324872e+38
0.29063669 -0.072171479 0.72300005 -2.4324872e+38
0.21995664 -0.074348025 0.75900006 nan
0.22079249 -0.074152119 0.75700003 nan
0.22162087 -0.073956206 0.75500005 nan
0.22273718 -0.073858254 0.75400001 nan
0.22295792 -0.073466428 0.75000006 nan
0.22406113 -0.073368475 0.74900001 nan
0.22395654 -0.072878703 0.74400002 nan
0.22443902 -0.07258483 0.74100006 nan
0.22521505 -0.072388925 0.73900002 -2.9807563e+38
0.22629021 -0.072290964 0.73800004 -2.7925225e+38
0.22705317 -0.072095059 0.73600006 -2.3129086e+38
0.22780861 -0.071899146 0.73400003 -2.419195e+38
0.22918105 -0.071899146 0.73400003 -2.56541e+38
0.23023941 -0.071801186 0.73300004 -2.5919954e+38
0.23097803 -0.07160528 0.73100001 -2.5919954e+38
0.23202701 -0.07150732 0.73000002 -2.6185792e+38
0.23275256 -0.071311414 0.72800004 -2.6185792e+38
0.23379219 -0.071213461 0.72700006 -2.6185802e+38
0.23450466 -0.071017548 0.72500002 -2.5919954e+38
0.23520961 -0.070821635 0.72300005 -2.5787029e+38
0.23656149 -0.070821635 0.72300005 -2.5388255e+38
0.23758432 -0.070723683 0.72200006 -2.5388255e+38
0.23893432 -0.070723683 0.72200006 -2.5122409e+38
0.23961872 -0.07052777 0.72000003 -2.4856564e+38
0.24096499 -0.07052777 0.72000003 -2.4856564e+38
0.24197473 -0.070429817 0.71900004 -2.4989486e+38
0.24331912 -0.070429817 0.71900004 -2.4856564e+38
0.24398296 -0.070233904 0.71700001 -2.4856564e+38
0.24498147 -0.070135951 0.71600002 -2.4989486e+38
0.24632025 -0.070135951 0.71600002 -2.4856564e+38
0.24765903 -0.070135951 0.71600002 -2.4856564e+38
0.24830231 -0.069940038 0.71400005 -2.4457795e+38
0.24963737 -0.069940038 0.71400005 -2.4457795e+38
0.25097242 -0.069940038 0.71400005 -2.4590718e+38
0.25230747 -0.069940038 0.71400005 -2.4590718e+38
0.2536425 -0.069940038 0.71400005 -2.4590718e+38
0.25497755 -0.069940038 0.71400005 -2.4590718e+38
0.25631261 -0.069940038 0.71400005 -2.4723641e+38
0.25764766 -0.069940038 0.71400005 -2.4590718e+38
0.25898272 -0.069940038 0.71400005 -2.419195e+38
0.26031777 -0.069940038 0.71400005 -2.3793181e+38
0.26128638 -0.069842085 0.71300006 -2.3660258e+38
0.26298788 -0.069940038 0.71400005 -2.3793181e+38
0.26506332 -0.070135951 0.71600002 -2.3660258e+38
0.26565796 -0.069940038 0.71400005 -2.3660258e+38
0.26699302 -0.069940038 0.71400005 -2.3660258e+38
0.26832807 -0.069940038 0.71400005 -2.3660258e+38
0.26966313 -0.069940038 0.71400005 -2.4457795e+38
0.27099818 -0.069940038 0.71400005 -2.4457795e+38
0.27233323 -0.069940038 0.71400005 -2.4324872e+38
0.27366829 -0.069940038 0.71400005 -2.4457795e+38
0.27500331 -0.069940038 0.71400005 -2.4989486e+38
0.27711242 -0.070135951 0.71600002 -2.4723641e+38
0.2784512 -0.070135951 0.71600002 -2.4590718e+38
0.28018078 -0.070233904 0.71700001 -2.4590718e+38
0.28230673 -0.070429817 0.71900004 -2.4457795e+38
0.28404564 -0.07052777 0.72000003 -2.4590718e+38
0.28618464 -0.070723683 0.72200006 -2.4590718e+38
0.28753465 -0.070723683 0.72200006 -2.4723641e+38
0.2892848 -0.070821635 0.72300005 -2.4856564e+38
0.29063669 -0.070821635 0.72300005 -2.4989486e+38
0.21937704 -0.072738789 0.75700003 nan
0.22079249 -0.072738789 0.75700003 nan
0.22162087 -0.072546616 0.75500005 nan
0.22273718 -0.072450526 0.75400001 nan
0.22295792 -0.072066173 0.75000006 nan
0.22406113 -0.071970083 0.74900001 nan
0.22395654 -0.071489647 0.74400002 nan
0.22474192 -0.071297467 0.74200004 nan
0.22582455 -0.071201377 0.74100006 -2.8471536e+38
0.22659685 -0.071009204 0.73900002 -2.6852004e+38
0.22767015 -0.070913114 0.73800004 -2.3793183e+38
0.22842935 -0.070720941 0.73600006 -2.4324872e+38
0.22918105 -0.070528761 0.73400003 -2.56541e+38
0.23023941 -0.07043267 0.73300004 -2.5919954e+38
0.23097803 -0.070240498 0.73100001 -2.5919954e+38
0.23202701 -0.070144407 0.73000002 -2.5919954e+38
0.23339197 -0.070144407 0.73000002 -2.5919954e+38
0.23411378 -0.069952227 0.72800004 -2.5919954e+38
0.23515154 -0.069856144 0.72700006 -2.5919954e+38
0.23586027 -0.069663964 0.72500002 -2.5787029e+38
0.23721589 -0.069663964 0.72500002 -2.5654104e+38
0.23791337 -0.069471784 0.72300005 -2.5388255e+38
0.23893432 -0.069375701 0.72200006 -2.4989486e+38
0.24028434 -0.069375701 0.72200006 -2.4856564e+38
0.24096499 -0.069183521 0.72000003 -2.4856564e+38
0.24231127 -0.069183521 0.72000003 -2.4989486e+38
0.24365753 -0.069183521 0.72000003 -2.4989486e+38
0.24466352 -0.069087438 0.71900004 -2.4989486e+38
0.2453236 -0.068895258 0.71700001 -2.4989486e+38
0.24666426 -0.068895258 0.71700001 -2.4856564e+38
0.24800493 -0.068895258 0.71700001 -2.4856564e+38
0.24899782 -0.068799175 0.71600002 -2.4457795e+38
0.25033662 -0.068799175 0.71600002 -2.4590718e+38
0.2516754 -0.068799175 0.71600002 -2.4723641e+38
0.25301421 -0.068799175 0.71600002 -2.4590718e+38
0.25435299 -0.068799175 0.71600002 -2.4989486e+38
0.25569177 -0.068799175 0.71600002 -2.4989486e+38
0.25703058 -0.068799175 0.71600002 -2.4989486e+38
0.25836936 -0.068799175 0.71600002 -2.5122411e+38
0.25970814 -0.068799175 0.71600002 -2.4989486e+38
0.26104695 -0.068799175 0.71600002 -2.4590718e+38
0.26165283 -0.068606995 0.71400005 -2.4059033e+38
0.26372451 -0.068799175 0.71600002 -2.3793185e+38
0.26506332 -0.068799175 0.71600002 -2.3793181e+38
0.2664021 -0.068799175 0.71600002 -2.3926104e+38
0.26774091 -0.068799175 0.71600002 -2.4324872e+38
0.26907969 -0.068799175 0.71600002 -2.4457795e+38
0.27041847 -0.068799175 0.71600002 -2.4590722e+38
0.27175727 -0.068799175 0.71600002 -2.4324874e+38
0.27309605 -0.068799175 0.71600002 -2.419195e+38
0.27443483 -0.068799175 0.71600002 -2.4324872e+38
0.27577364 -0.068799175 0.71600002 -2.4457795e+38
0.27749944 -0.068895258 0.71700001 -2.4590718e+38
0.27884009 -0.068895258 0.71700001 -2.4723647e+38
0.28096232 -0.069087438 0.71900004 -2.4590724e+38
0.28269935 -0.069183521 0.72000003 -2.4457797e+38
0.28483462 -0.069375701 0.72200006 -2.4457795e+38
0.28658104 -0.069471784 0.72300005 -2.4590718e+38
0.28793293 -0.069471784 0.72300005 -2.4590718e+38
0.2892848 -0.069471784 0.72300005 -2.4856564e+38
0.29144064 -0.069663964 0.72500002 -2.4989486e+38
0.29279625 -0.069663964 0.72500002 -2.5122421e+38
0.21911331 -0.071702346 0.76100004 nan
0.21995664 -0.071513899 0.75900006 nan
0.22079249 -0.071325466 0.75700003 nan
0.22162087 -0.071137019 0.75500005 nan
0.22273718 -0.071042806 0.75400001 nan
0.22355247 -0.070854358 0.75200003 nan
0.22436029 -0.070665911 0.75000006 nan
0.22395654 -0.070100591 0.74400002 nan
0.22474192 -0.069912143 0.74200004 nan
0.22582455 -0.069817923 0.74100006 -2.6469879e+38
0.22659685 -0.069629483 0.73900002 -2.6718006e+38
0.22767015 -0.069535255 0.73800004 -2.4989486e+38
0.22842935 -0.069346823 0.73600006 -2.5255332e+38
0.22980553 -0.069346823 0.73600006 -2.6185796e+38
0.23055351 -0.069158375 0.73400003 -2.5919946e+38
0.23160999 -0.069064148 0.73300004 -2.5919946e+38
0.23298056 -0.069064148 0.73300004 -2.5919954e+38
0.23339197 -0.068781488 0.73000002 -2.6185802e+38
0.23475695 -0.068781488 0.73000002 -2.6185802e+38
0.23547502 -0.068593048 0.72800004 -2.6318729e+38
0.2365109 -0.068498828 0.72700006 -2.5919954e+38
0.23721589 -0.06831038 0.72500002 -2.5787029e+38
0.23791337 -0.06812194 0.72300005 -2.552118e+38
0.23926525 -0.06812194 0.72300005 -2.5388255e+38
0.24028434 -0.06802772 0.72200006 -2.4989486e+38
0.24163434 -0.06802772 0.72200006 -2.4856564e+38
0.24298435 -0.06802772 0.72200006 -2.4856564e+38
0.24433437 -0.06802772 0.72200006 -2.4856564e+38
0.2450038 -0.067839272 0.72000003 -2.4856564e+38
0.24600792 -0.06774506 0.71900004 -2.4989486e+38
0.24735233 -0.06774506 0.71900004 -2.4856564e+38
0.24869673 -0.06774506 0.71900004 -2.4856564e+38
0.24934559 -0.067556612 0.71700001 -2.459072e+38
0.25068623 -0.067556612 0.71700001 -2.459072e+38
0.25202692 -0.067556612 0.71700001 -2.4590718e+38
0.25336757 -0.067556612 0.71700001 -2.4590718e+38
0.25470823 -0.067556612 0.71700001 -2.4723641e+38
0.25604889 -0.067556612 0.71700001 -2.4989486e+38
0.25738955 -0.067556612 0.71700001 -2.4989486e+38
0.2587302 -0.067556612 0.71700001 -2.4989486e+38
0.26007086 -0.067556612 0.71700001 -2.4989486e+38
0.26141152 -0.067556612 0.71700001 -2.4590718e+38
0.26238573 -0.067462392 0.71600002 -2.4059033e+38
0.26372451 -0.067462392 0.71600002 -2.392611e+38
0.26506332 -0.067462392 0.71600002 -2.3926106e+38
0.2664021 -0.067462392 0.71600002 -2.3793181e+38
0.26774091 -0.067462392 0.71600002 -2.3793181e+38
0.26907969 -0.067462392 0.71600002 -2.3793181e+38
0.27041847 -0.067462392 0.71600002 -2.3793181e+38
0.27213681 -0.067556612 0.71700001 -2.3793181e+38
0.27347746 -0.067556612 0.71700001 -2.3926104e+38
0.27481812 -0.067556612 0.71700001 -2.3926104e+38
0.27615878 -0.067556612 0.71700001 -2.419195e+38
0.27827352 -0.06774506 0.71900004 -2.4324872e+38
0.27961794 -0.06774506 0.71900004 -2.4457795e+38
0.28135309 -0.067839272 0.72000003 -2.4457795e+38
0.28348461 -0.06802772 0.72200006 -2.4457795e+38
0.28483462 -0.06802772 0.72200006 -2.4457795e+38
0.28658104 -0.06812194 0.72300005 -2.4457795e+38
0.28793293 -0.06812194 0.72300005 -2.4590718e+38
0.2892848 -0.06812194 0.72300005 -2.4856564e+38
0.29144064 -0.06831038 0.72500002 -2.5255336e+38
0.29360396 -0.068498828 0.72700006 -2.5255348e+38
0.21769038 -0.07028155 0.76100004 nan
0.21911331 -0.07028155 0.76100004 nan
0.21995664 -0.070096843 0.75900006 nan
0.22079249 -0.069912136 0.75700003 nan
0.22162087 -0.069727428 0.75500005 nan
0.22303258 -0.069727428 0.75500005 nan
0.22414702 -0.069635078 0.75400001 nan
0.22495857 -0.069450364 0.75200003 nan
0.22395654 -0.068711534 0.74400002 nan
0.22474192 -0.068526827 0.74200004 nan
0.22582455 -0.068434462 0.74100006 -2.4601153e+38
0.22721009 -0.068434462 0.74100006 -2.4724162e+38
0.22797865 -0.068249762 0.73900002 -2.5255332e+38
0.22905007 -0.068157405 0.73800004 -2.6052897e+38
0.22980553 -0.067972705 0.73600006 -2.6052897e+38
0.23055351 -0.06778799 0.73400003 -2.658456e+38
0.23192595 -0.06778799 0.73400003 -2.6451637e+38
0.23298056 -0.067695633 0.73300004 -2.5787023e+38
0.23339197 -0.067418568 0.73000002 -2.6185792e+38
0.23475695 -0.067418568 0.73000002 -2.6185802e+38
0.23547502 -0.06723386 0.72800004 -2.6318729e+38
0.2365109 -0.067141511 0.72700006 -2.6052887e+38
0.23787026 -0.067141511 0.72700006 -2.565411e+38
0.23857151 -0.066956803 0.72500002 -2.552118e+38
0.23926525 -0.066772088 0.72300005 -2.5388255e+38
0.24061714 -0.066772088 0.72300005 -2.525534e+38
0.24163434 -0.066679738 0.72200006 -2.4989492e+38
0.24298435 -0.066679738 0.72200006 -2.4989486e+38
0.24467278 -0.066772088 0.72300005 -2.4989486e+38
0.24568436 -0.066679738 0.72200006 -2.4856564e+38
0.24635008 -0.066495031 0.72000003 -2.4989486e+38
0.24735233 -0.066402674 0.71900004 -2.4324872e+38
0.24869673 -0.066402674 0.71900004 -2.4457797e+38
0.25004113 -0.066402674 0.71900004 -2.4457811e+38
0.25138551 -0.066402674 0.71900004 -2.4457813e+38
0.25272992 -0.066402674 0.71900004 -2.459072e+38
0.25407434 -0.066402674 0.71900004 -2.4590718e+38
0.25541872 -0.066402674 0.71900004 -2.4590718e+38
0.25604889 -0.066217966 0.71700001 -2.4989486e+38
0.25810751 -0.066402674 0.71900004 -2.5122421e+38
0.2587302 -0.066217966 0.71700001 -2.4989498e+38
0.26007086 -0.066217966 0.71700001 -2.4989488e+38
0.26141152 -0.066217966 0.71700001 -2.4590718e+38
0.26275218 -0.066217966 0.71700001 -2.4191956e+38
0.26409283 -0.066217966 0.71700001 -2.4191958e+38
0.26543352 -0.066217966 0.71700001 -2.4191952e+38
0.26677418 -0.066217966 0.71700001 -2.3926104e+38
0.26811484 -0.066217966 0.71700001 -2.4324872e+38
0.26945549 -0.066217966 0.71700001 -2.4324872e+38
0.27079615 -0.066217966 0.71700001 -2.3926104e+38
0.27213681 -0.066217966 0.71700001 -2.3793181e+38
0.27424031 -0.066402674 0.71900004 -2.419195e+38
0.27558473 -0.066402674 0.71900004 -2.4324872e+38
0.27692911 -0.066402674 0.71900004 -2.4324872e+38
0.27866054 -0.066495031 0.72000003 -2.4324872e+38
0.28078461 -0.066679738 0.72200006 -2.4457795e+38
0.28213462 -0.066679738 0.72200006 -2.4324872e+38
0.28348461 -0.066679738 0.72200006 -2.4324872e+38
0.28522918 -0.066772088 0.72300005 -2.4457795e+38
0.28737378 -0.066956803 0.72500002 -2.4590722e+38
0.2887294 -0.066956803 0.72500002 -2.4590722e+38
0.29008502 -0.066956803 0.72500002 -2.4723643e+38
0.29224461 -0.067141511 0.72700006 -2.4989486e+38
0.29521939 -0.067510933 0.73100001 -2.5255348e+38
0.21911331 -0.068860754 0.76100004 nan
0.21995664 -0.06867978 0.75900006 nan
0.22079249 -0.068498813 0.75700003 nan
0.22220795 -0.068498813 0.75700003 nan
0.22303258 -0.068317838 0.75500005 nan
0.22414702 -0.068227351 0.75400001 nan
0.22436029 -0.067865402 0.75000006 nan
0.22395654 -0.067322478 0.74400002 nan
0.22534768 -0.067322478 0.74400002 nan
0.22612932 -0.067141503 0.74200004 -2.2733965e+38
0.22721009 -0.067051008 0.74100006 -2.4457795e+38
0.22797865 -0.066870041 0.73900002 -2.5787023e+38
0.22905007 -0.066779554 0.73800004 -2.6451655e+38
0.22980553 -0.066598579 0.73600006 -2.6451655e+38
0.23055351 -0.066417605 0.73400003 -2.6451649e+38
0.23192595 -0.066417605 0.73400003 -2.6451649e+38
0.23298056 -0.066327117 0.73300004 -2.6451637e+38
0.2337117 -0.066146143 0.73100001 -2.6451637e+38
0.23507854 -0.066146143 0.73100001 -2.5919954e+38
0.23612191 -0.066055655 0.73000002 -2.6185802e+38
0.23683624 -0.065874681 0.72800004 -2.5919968e+38
0.23819748 -0.065874681 0.72800004 -2.5521196e+38
0.23857151 -0.065603219 0.72500002 -2.5388257e+38
0.23992713 -0.065603219 0.72500002 -2.5388255e+38
0.24061714 -0.065422244 0.72300005 -2.5388255e+38
0.24196902 -0.065422244 0.72300005 -2.4989486e+38
0.2433209 -0.065422244 0.72300005 -2.5388255e+38
0.24467278 -0.065422244 0.72300005 -2.5388255e+38
0.24602467 -0.065422244 0.72300005 -2.5255332e+38
0.24703437 -0.065331757 0.72200006 -2.4989486e+38
0.24769634 -0.065150782 0.72000003 -2.459072e+38
0.24904262 -0.065150782 0.72000003 -2.459072e+38
0.25038889 -0.065150782 0.72000003 -2.4723649e+38
0.25138551 -0.065060295 0.71900004 -2.4590724e+38
0.25272992 -0.065060295 0.71900004 -2.4457795e+38
0.25407434 -0.065060295 0.71900004 -2.4457795e+38
0.25541872 -0.065060295 0.71900004 -2.4590718e+38
0.25676313 -0.065060295 0.71900004 -2.4989486e+38
0.25810751 -0.065060295 0.71900004 -2.4989501e+38
0.25945193 -0.065060295 0.71900004 -2.4723653e+38
0.26079634 -0.065060295 0.71900004 -2.4723649e+38
0.26214072 -0.065060295 0.71900004 -2.4590724e+38
0.26348513 -0.065060295 0.71900004 -2.4590718e+38
0.26409283 -0.064879321 0.71700001 -2.4590718e+38
0.26617393 -0.065060295 0.71900004 -2.4590724e+38
0.26677418 -0.064879321 0.71700001 -2.4457799e+38
0.26886272 -0.065060295 0.71900004 -2.4457795e+38
0.27020714 -0.065060295 0.71900004 -2.4324872e+38
0.27155152 -0.065060295 0.71900004 -2.4324872e+38
0.27289593 -0.065060295 0.71900004 -2.419195e+38
0.27462173 -0.065150782 0.72000003 -2.3926104e+38
0.27596802 -0.065150782 0.72000003 -2.4059027e+38
0.27808458 -0.065331757 0.72200006 -2.4324872e+38
0.27943459 -0.065331757 0.72200006 -2.4457795e+38
0.28117353 -0.065422244 0.72300005 -2.4457795e+38
0.28252539 -0.065422244 0.72300005 -2.4324872e+38
0.28387728 -0.065422244 0.72300005 -2.4457795e+38
0.28601816 -0.065603219 0.72500002 -2.4457795e+38
0.28737378 -0.065603219 0.72500002 -2.4856566e+38
0.2887294 -0.065603219 0.72500002 -2.4989488e+38
0.29088524 -0.065784194 0.72700006 -2.4989488e+38
0.29264659 -0.065874681 0.72800004 -2.5388261e+38
0.29602709 -0.066327117 0.73300004 -2.565411e+38
0.21853745 -0.067262717 0.75900006 nan
0.21995664 -0.067262717 0.75900006 nan
0.22079249 -0.067085482 0.75700003 nan
0.22220795 -0.067085482 0.75700003 nan
0.22303258 -0.06690824 0.75500005 nan
0.22414702 -0.066819623 0.75400001 nan
0.22495857 -0.066642381 0.75200003 nan
0.22455858 -0.066110656 0.74600005 nan
0.22534768 -0.065933421 0.74400002 nan
0.22612932 -0.065756179 0.74200004 -2.1934345e+38
0.22721009 -0.065667555 0.74100006 -2.326149e+38
0.22859563 -0.065667555 0.74100006 -2.5787544e+38
0.22936045 -0.06549032 0.73900002 -2.6717503e+38
0.22980553 -0.065224461 0.73600006 -2.6318729e+38
0.23118173 -0.065224461 0.73600006 -2.6451649e+38
0.23192595 -0.065047219 0.73400003 -2.6451649e+38
0.23298056 -0.064958595 0.73300004 -2.6451645e+38
0.23435114 -0.064958595 0.73300004 -2.658457e+38
0.23507854 -0.06478136 0.73100001 -2.6185802e+38
0.23612191 -0.064692736 0.73000002 -2.5787029e+38
0.23683624 -0.064515494 0.72800004 -2.5787031e+38
0.23819748 -0.064515494 0.72800004 -2.5654106e+38
0.23922962 -0.064426877 0.72700006 -2.56541e+38
0.23992713 -0.064249635 0.72500002 -2.5388255e+38
0.24128275 -0.064249635 0.72500002 -2.5388255e+38
0.24196902 -0.064072393 0.72300005 -2.5388255e+38
0.2433209 -0.064072393 0.72300005 -2.5388255e+38
0.2453496 -0.064249635 0.72500002 -2.552118e+38
0.24602467 -0.064072393 0.72300005 -2.5388265e+38
0.24737655 -0.064072393 0.72300005 -2.525534e+38
0.24838437 -0.063983776 0.72200006 -2.4590718e+38
0.24973439 -0.063983776 0.72200006 -2.4590718e+38
0.25108439 -0.063983776 0.72200006 -2.4590718e+38
0.25173515 -0.063806534 0.72000003 -2.4590718e+38
0.25308141 -0.063806534 0.72000003 -2.4590718e+38
0.2544277 -0.063806534 0.72000003 -2.4590718e+38
0.25541872 -0.063717917 0.71900004 -2.4723647e+38
0.25676313 -0.063717917 0.71900004 -2.5255348e+38
0.25846651 -0.063806534 0.72000003 -2.4989517e+38
0.25981277 -0.063806534 0.72000003 -2.4723669e+38
0.26115903 -0.063806534 0.72000003 -2.4324887e+38
0.26250532 -0.063806534 0.72000003 -2.4324884e+38
0.26348513 -0.063717917 0.71900004 -2.459072e+38
0.26482952 -0.063717917 0.71900004 -2.4723641e+38
0.26617393 -0.063717917 0.71900004 -2.4590718e+38
0.26751831 -0.063717917 0.71900004 -2.4856564e+38
0.26886272 -0.063717917 0.71900004 -2.4723641e+38
0.27020714 -0.063717917 0.71900004 -2.4457795e+38
0.27155152 -0.063717917 0.71900004 -2.419195e+38
0.27327546 -0.063806534 0.72000003 -2.3926104e+38
0.27462173 -0.063806534 0.72000003 -2.3926104e+38
0.27673456 -0.063983776 0.72200006 -2.3926104e+38
0.27808458 -0.063983776 0.72200006 -2.4324872e+38
0.27982163 -0.064072393 0.72300005 -2.4457795e+38
0.28117353 -0.064072393 0.72300005 -2.4590718e+38
0.28252539 -0.064072393 0.72300005 -2.4590718e+38
0.28387728 -0.064072393 0.72300005 -2.4590718e+38
0.28601816 -0.064249635 0.72500002 -2.4723641e+38
0.28816652 -0.064426877 0.72700006 -2.4723647e+38
0.2895259 -0.064426877 0.72700006 -2.4989496e+38
0.29128537 -0.064515494 0.72800004 -2.4989503e+38
0.29345059 -0.064692736 0.73000002 -2.5255352e+38
0.29602709 -0.064958595 0.73300004 -2.5787045e+38
0.21853745 -0.065845661 0.75900006 nan
0.21995664 -0.065845661 0.75900006 nan
0.22079249 -0.065672159 0.75700003 nan
0.22162087 -0.06549865 0.75500005 nan
0.22303258 -0.06549865 0.75500005 nan
0.22414702 -0.065411903 0.75400001 nan
0.22436029 -0.065064885 0.75000006 nan
0.22455858 -0.064717866 0.74600005 nan
0.22534768 -0.064544365 0.74400002 nan
0.22612932 -0.064370863 0.74200004 -2.0870443e+38
0.22751673 -0.064370863 0.74200004 -2.2995644e+38
0.22859563 -0.064284101 0.74100006 -2.5655141e+38
0.22936045 -0.064110599 0.73900002 -2.6850428e+38
0.23042999 -0.064023845 0.73800004 -2.6717503e+38
0.23118173 -0.063850343 0.73600006 -2.6451655e+38
0.23192595 -0.063676834 0.73400003 -2.6185804e+38
0.23329841 -0.063676834 0.73400003 -2.5787029e+38
0.23435114 -0.06359008 0.73300004 -2.6185802e+38
0.23572171 -0.06359008 0.73300004 -2.6185802e+38
0.23644538 -0.063416578 0.73100001 -2.6318729e+38
0.23748688 -0.063329816 0.73000002 -2.5919954e+38
0.23819748 -0.063156314 0.72800004 -2.5654104e+38
0.2395587 -0.063156314 0.72800004 -2.5388255e+38
0.24058898 -0.06306956 0.72700006 -2.5388255e+38
0.24128275 -0.062896051 0.72500002 -2.5388265e+38
0.24196902 -0.062722549 0.72300005 -2.525534e+38
0.2433209 -0.062722549 0.72300005 -2.5388255e+38
0.2453496 -0.062896051 0.72500002 -2.5388255e+38
0.24670522 -0.062896051 0.72500002 -2.4723641e+38
0.24737655 -0.062722549 0.72300005 -2.4590718e+38
0.24838437 -0.062635794 0.72200006 -2.4590718e+38
0.24973439 -0.062635794 0.72200006 -2.4590718e+38
0.25108439 -0.062635794 0.72200006 -2.4989486e+38
0.25173515 -0.062462285 0.72000003 -2.4989486e+38
0.25308141 -0.062462285 0.72000003 -2.4723647e+38
0.2544277 -0.062462285 0.72000003 -2.4723649e+38
0.25577396 -0.062462285 0.72000003 -2.4989498e+38
0.25712022 -0.062462285 0.72000003 -2.5255348e+38
0.25846651 -0.062462285 0.72000003 -2.4989503e+38
0.25981277 -0.062462285 0.72000003 -2.4856578e+38
0.26115903 -0.062462285 0.72000003 -2.4457807e+38
0.26250532 -0.062462285 0.72000003 -2.392611e+38
0.26385158 -0.062462285 0.72000003 -2.4457795e+38
0.26482952 -0.062375538 0.71900004 -2.4723641e+38
0.26617393 -0.062375538 0.71900004 -2.4723647e+38
0.26789039 -0.062462285 0.72000003 -2.4989498e+38
0.26923665 -0.062462285 0.72000003 -2.4989488e+38
0.27058291 -0.062462285 0.72000003 -2.4856564e+38
0.2719292 -0.062462285 0.72000003 -2.4457795e+38
0.27403456 -0.062635794 0.72200006 -2.4324872e+38
0.27538458 -0.062635794 0.72200006 -2.4324872e+38
0.27673456 -0.062635794 0.72200006 -2.4324872e+38
0.27846977 -0.062722549 0.72300005 -2.419195e+38
0.27982163 -0.062722549 0.72300005 -2.4457797e+38
0.28117353 -0.062722549 0.72300005 -2.4590718e+38
0.28330693 -0.062896051 0.72500002 -2.4590718e+38
0.28466254 -0.062896051 0.72500002 -2.4856564e+38
0.28601816 -0.062896051 0.72500002 -2.5122411e+38
0.28816652 -0.06306956 0.72700006 -2.5122411e+38
0.28992414 -0.063156314 0.72800004 -2.5255336e+38
0.29208562 -0.063329816 0.73000002 -2.5122427e+38
0.29385257 -0.063416578 0.73100001 -2.5255356e+38
0.29643095 -0.063676834 0.73400003 -2.5654123e+38
0.21995664 -0.064428598 0.75900006 nan
0.22079249 -0.064258829 0.75700003 nan
0.22162087 -0.06408906 0.75500005 nan
0.22303258 -0.06408906 0.75500005 nan
0.22414702 -0.064004175 0.75400001 nan
0.22436029 -0.06366463 0.75000006 nan
0.22455858 -0.063325077 0.74600005 nan
0.22534768 -0.063155316 0.74400002 nan
0.22612932 -0.062985539 0.74200004 -2.1667976e+38
0.22751673 -0.062985539 0.74200004 -2.3128567e+38
0.22859563 -0.062900648 0.74100006 -2.5787544e+38
0.22936045 -0.062730879 0.73900002 -2.685043e+38
0.23042999 -0.062645994 0.73800004 -2.6717507e+38
0.23118173 -0.062476225 0.73600006 -2.6451645e+38
0.23255791 -0.062476225 0.73600006 -2.6451643e+38
0.23329841 -0.062306449 0.73400003 -2.6451637e+38
0.23435114 -0.062221561 0.73300004 -2.6451637e+38
0.23572171 -0.062221561 0.73300004 -2.6318731e+38
0.23644538 -0.062051792 0.73100001 -2.6185806e+38
0.23748688 -0.061966904 0.73000002 -2.6185816e+38
0.23819748 -0.061797127 0.72800004 -2.5787045e+38
0.2395587 -0.061797127 0.72800004 -2.5388257e+38
0.24058898 -0.061712246 0.72700006 -2.5787023e+38
0.24128275 -0.06154247 0.72500002 -2.5654115e+38
0.24196902 -0.061372697 0.72300005 -2.5388267e+38
0.2433209 -0.061372697 0.72300005 -2.5388255e+38
0.2453496 -0.06154247 0.72500002 -2.5388255e+38
0.24670522 -0.06154247 0.72500002 -2.5255332e+38
0.24737655 -0.061372697 0.72300005 -2.4989486e+38
0.24872842 -0.061372697 0.72300005 -2.5255332e+38
0.25008032 -0.061372697 0.72300005 -2.5255332e+38
0.25143218 -0.061372697 0.72300005 -2.4723641e+38
0.2524344 -0.061287813 0.72200006 -2.4590718e+38
0.25378442 -0.061287813 0.72200006 -2.4723649e+38
0.2544277 -0.06111804 0.72000003 -2.4723649e+38
0.25577396 -0.06111804 0.72000003 -2.4989498e+38
0.25712022 -0.06111804 0.72000003 -2.4989498e+38
0.25846651 -0.06111804 0.72000003 -2.4989498e+38
0.26053447 -0.061287813 0.72200006 -2.4989498e+38
0.26188448 -0.061287813 0.72200006 -2.4989488e+38
0.26323447 -0.061287813 0.72200006 -2.4590718e+38
0.26385158 -0.06111804 0.72000003 -2.4723641e+38
0.26519784 -0.06111804 0.72000003 -2.4989486e+38
0.26654413 -0.06111804 0.72000003 -2.5122421e+38
0.26789039 -0.06111804 0.72000003 -2.4723649e+38
0.26923665 -0.06111804 0.72000003 -2.459072e+38
0.27133453 -0.061287813 0.72200006 -2.4590718e+38
0.27268454 -0.061287813 0.72200006 -2.4457795e+38
0.27403456 -0.061287813 0.72200006 -2.4457795e+38
0.27576602 -0.061372697 0.72300005 -2.4457795e+38
0.27711788 -0.061372697 0.72300005 -2.4590718e+38
0.27846977 -0.061372697 0.72300005 -2.4723647e+38
0.28059569 -0.06154247 0.72500002 -2.4590724e+38
0.28195131 -0.06154247 0.72500002 -2.459072e+38
0.28330693 -0.06154247 0.72500002 -2.4590718e+38
0.28466254 -0.06154247 0.72500002 -2.4856564e+38
0.28680718 -0.061712246 0.72700006 -2.4989486e+38
0.28856289 -0.061797127 0.72800004 -2.5255336e+38
0.28992414 -0.061797127 0.72800004 -2.5388261e+38
0.29248571 -0.062051792 0.73100001 -2.5255358e+38
0.29505852 -0.062306449 0.73400003 -2.5388291e+38
0.29723868 -0.062476225 0.73600006 -2.5654119e+38
0.22053625 -0.063177578 0.76100004 nan
0.22079249 -0.062845506 0.75700003 nan
0.22220795 -0.062845506 0.75700003 nan
0.22303258 -0.062679462 0.75500005 nan
0.22414702 -0.062596448 0.75400001 nan
0.22436029 -0.062264368 0.75000006 nan
0.22455858 -0.061932288 0.74600005 nan
0.22534768 -0.061766256 0.74400002 -3.3537157e+38
0.22612932 -0.061600216 0.74200004 -2.1667459e+38
0.22751673 -0.061600216 0.74200004 -2.3527336e+38
0.22859563 -0.061517194 0.74100006 -2.6186834e+38
0.22936045 -0.061351161 0.73900002 -2.6850428e+38
0.23042999 -0.061268136 0.73800004 -2.6717503e+38
0.23118173 -0.0611021 0.73600006 -2.6451653e+38
0.23255791 -0.0611021 0.73600006 -2.6185804e+38
0.23329841 -0.06093606 0.73400003 -2.6584572e+38
0.23467085 -0.06093606 0.73400003 -2.6584574e+38
0.23604329 -0.06093606 0.73400003 -2.591997e+38
0.23709229 -0.060853045 0.73300004 -2.5787045e+38
0.23781222 -0.060687006 0.73100001 -2.5787045e+38
0.23885185 -0.060603984 0.73000002 -2.5787045e+38
0.2395587 -0.060437948 0.72800004 -2.5388257e+38
0.24058898 -0.060354929 0.72700006 -2.5521178e+38
0.24194834 -0.060354929 0.72700006 -2.5388255e+38
0.24263836 -0.06018889 0.72500002 -2.5255332e+38
0.24399398 -0.06018889 0.72500002 -2.5255332e+38
0.2453496 -0.06018889 0.72500002 -2.5255332e+38
0.24670522 -0.06018889 0.72500002 -2.5255332e+38
0.24806084 -0.06018889 0.72500002 -2.4989486e+38
0.24872842 -0.060022853 0.72300005 -2.5388255e+38
0.25008032 -0.060022853 0.72300005 -2.5521178e+38
0.25143218 -0.060022853 0.72300005 -2.5388255e+38
0.2524344 -0.059939831 0.72200006 -2.5521178e+38
0.25413594 -0.060022853 0.72300005 -2.4989486e+38
0.25513443 -0.059939831 0.72200006 -2.4989486e+38
0.25648442 -0.059939831 0.72200006 -2.4989496e+38
0.25783443 -0.059939831 0.72200006 -2.4989498e+38
0.25918445 -0.059939831 0.72200006 -2.4989488e+38
0.26053447 -0.059939831 0.72200006 -2.4989486e+38
0.26188448 -0.059939831 0.72200006 -2.4590718e+38
0.26323447 -0.059939831 0.72200006 -2.4457795e+38
0.26458448 -0.059939831 0.72200006 -2.459072e+38
0.2659345 -0.059939831 0.72200006 -2.4723645e+38
0.26654413 -0.059773792 0.72000003 -2.4723649e+38
0.26863453 -0.059939831 0.72200006 -2.4590724e+38
0.26998451 -0.059939831 0.72200006 -2.4590724e+38
0.27133453 -0.059939831 0.72200006 -2.4590724e+38
0.27306226 -0.060022853 0.72300005 -2.459072e+38
0.27441412 -0.060022853 0.72300005 -2.4590718e+38
0.27576602 -0.060022853 0.72300005 -2.4059027e+38
0.27788445 -0.06018889 0.72500002 -2.3926104e+38
0.27924007 -0.06018889 0.72500002 -2.4590724e+38
0.28059569 -0.06018889 0.72500002 -2.4590724e+38
0.28195131 -0.06018889 0.72500002 -2.459072e+38
0.28408846 -0.060354929 0.72700006 -2.4590718e+38
0.28544781 -0.060354929 0.72700006 -2.4590718e+38
0.28720167 -0.060437948 0.72800004 -2.5255334e+38
0.28935567 -0.060603984 0.73000002 -2.5388261e+38
0.29072064 -0.060603984 0.73000002 -2.5521186e+38
0.29328597 -0.060853045 0.73300004 -2.5388275e+38
0.29505852 -0.06093606 0.73400003 -2.5255354e+38
0.29723868 -0.0611021 0.73600006 -2.5388267e+38
0.22053625 -0.061756782 0.76100004 nan
0.22137584 -0.061594479 0.75900006 nan
0.22220795 -0.061432179 0.75700003 nan
0.22362339 -0.061432179 0.75700003 nan
0.2244443 -0.061269872 0.75500005 nan
0.22495857 -0.061026417 0.75200003 nan
0.22455858 -0.060539503 0.74600005 nan
0.22534768 -0.060377199 0.74400002 -3.2599919e+38
0.22612932 -0.060214896 0.74200004 -2.1932262e+38
0.22751673 -0.060214896 0.74200004 -2.4457795e+38
0.22859563 -0.060133744 0.74100006 -2.6851472e+38
0.22936045 -0.059971437 0.73900002 -2.7117306e+38
0.23042999 -0.059890289 0.73800004 -2.6451647e+38
0.23180991 -0.059890289 0.73800004 -2.6717491e+38
0.23255791 -0.059727982 0.73600006 -2.6451643e+38
0.23329841 -0.059565675 0.73400003 -2.6451639e+38
0.23467085 -0.059565675 0.73400003 -2.6185794e+38
0.23604329 -0.059565675 0.73400003 -2.591997e+38
0.23709229 -0.059484527 0.73300004 -2.5787045e+38
0.23781222 -0.059322219 0.73100001 -2.5787031e+38
0.23885185 -0.059241068 0.73000002 -2.5654106e+38
0.2395587 -0.059078764 0.72800004 -2.5388255e+38
0.24091993 -0.059078764 0.72800004 -2.5388255e+38
0.24194834 -0.058997612 0.72700006 -2.5388265e+38
0.24263836 -0.058835305 0.72500002 -2.525534e+38
0.24399398 -0.058835305 0.72500002 -2.5255332e+38
0.24602641 -0.058997612 0.72700006 -2.5255332e+38
0.24738577 -0.058997612 0.72700006 -2.5255332e+38
0.24806084 -0.058835305 0.72500002 -2.5255332e+38
0.24941646 -0.058835305 0.72500002 -2.5388255e+38
0.25008032 -0.058673006 0.72300005 -2.5388255e+38
0.25143218 -0.058673006 0.72300005 -2.5388255e+38
0.25278407 -0.058673006 0.72300005 -2.5388255e+38
0.25413594 -0.058673006 0.72300005 -2.4989486e+38
0.25513443 -0.05859185 0.72200006 -2.4989486e+38
0.25648442 -0.05859185 0.72200006 -2.4989496e+38
0.25783443 -0.05859185 0.72200006 -2.4989498e+38
0.25954345 -0.058673006 0.72300005 -2.4989488e+38
0.26089534 -0.058673006 0.72300005 -2.4989486e+38
0.2622472 -0.058673006 0.72300005 -2.4590718e+38
0.2635991 -0.058673006 0.72300005 -2.4590718e+38
0.26458448 -0.05859185 0.72200006 -2.4590718e+38
0.2659345 -0.05859185 0.72200006 -2.4590718e+38
0.26728451 -0.05859185 0.72200006 -2.4457795e+38
0.26863453 -0.05859185 0.72200006 -2.4457795e+38
0.2703585 -0.058673006 0.72300005 -2.4590724e+38
0.27171037 -0.058673006 0.72300005 -2.4723649e+38
0.27306226 -0.058673006 0.72300005 -2.4590724e+38
0.27441412 -0.058673006 0.72300005 -2.4590724e+38
0.27652884 -0.058835305 0.72500002 -2.4059033e+38
0.27788445 -0.058835305 0.72500002 -2.392611e+38
0.27924007 -0.058835305 0.72500002 -2.4457797e+38
0.28059569 -0.058835305 0.72500002 -2.4590718e+38
0.28272909 -0.058997612 0.72700006 -2.4590722e+38
0.28408846 -0.058997612 0.72700006 -2.4723649e+38
0.28544781 -0.058997612 0.72700006 -2.4856566e+38
0.28799072 -0.059241068 0.73000002 -2.5122411e+38
0.28935567 -0.059241068 0.73000002 -2.4989492e+38
0.29111889 -0.059322219 0.73100001 -2.4856572e+38
0.29328597 -0.059484527 0.73300004 -2.5388271e+38
0.29465652 -0.059484527 0.73300004 -2.5654119e+38
0.22082603 -0.060415275 0.76200002 nan
0.22195917 -0.060335994 0.76100004 nan
0.22279502 -0.060177419 0.75900006 nan
0.22362339 -0.060018849 0.75700003 nan
0.2244443 -0.059860282 0.75500005 nan
0.22495857 -0.059622426 0.75200003 nan
0.22455858 -0.059146713 0.74600005 -3.1273378e+38
0.22534768 -0.058988143 0.74400002 -3.0055099e+38
0.22612932 -0.058829576 0.74200004 -2.4324872e+38
0.22751673 -0.058829576 0.74200004 -2.5521192e+38
0.22859563 -0.058750287 0.74100006 -2.7116809e+38
0.22998117 -0.058750287 0.74100006 -2.6850432e+38
0.23074225 -0.058591716 0.73900002 -2.6318733e+38
0.23180991 -0.058512434 0.73800004 -2.6451655e+38
0.23255791 -0.058353864 0.73600006 -2.6451653e+38
0.23329841 -0.058195289 0.73400003 -2.6185802e+38
0.23531029 -0.058353864 0.73600006 -2.5919954e+38
0.23604329 -0.058195289 0.73400003 -2.5654106e+38
0.23709229 -0.058116008 0.73300004 -2.5654106e+38
0.23846287 -0.058116008 0.73300004 -2.5787029e+38
0.23917906 -0.057957437 0.73100001 -2.5654104e+38
0.24021682 -0.057878152 0.73000002 -2.5388255e+38
0.24091993 -0.057719581 0.72800004 -2.5388255e+38
0.24228115 -0.057719581 0.72800004 -2.5388267e+38
0.24330769 -0.057640295 0.72700006 -2.525534e+38
0.24466705 -0.057640295 0.72700006 -2.5255332e+38
0.24602641 -0.057640295 0.72700006 -2.5255332e+38
0.24738577 -0.057640295 0.72700006 -2.4989486e+38
0.24874513 -0.057640295 0.72700006 -2.4989486e+38
0.24941646 -0.057481725 0.72500002 -2.4989486e+38
0.25077209 -0.057481725 0.72500002 -2.4989486e+38
0.25212771 -0.057481725 0.72500002 -2.4590718e+38
0.25278407 -0.057323154 0.72300005 -2.4590718e+38
0.25413594 -0.057323154 0.72300005 -2.4723649e+38
0.25548783 -0.057323154 0.72300005 -2.4989498e+38
0.25683969 -0.057323154 0.72300005 -2.4989498e+38
0.25819159 -0.057323154 0.72300005 -2.4989498e+38
0.25954345 -0.057323154 0.72300005 -2.5388257e+38
0.26089534 -0.057323154 0.72300005 -2.5255332e+38
0.2622472 -0.057323154 0.72300005 -2.4723641e+38
0.2635991 -0.057323154 0.72300005 -2.4590718e+38
0.26495096 -0.057323154 0.72300005 -2.4590718e+38
0.26630285 -0.057323154 0.72300005 -2.4723641e+38
0.26765475 -0.057323154 0.72300005 -2.4590724e+38
0.26900661 -0.057323154 0.72300005 -2.4590724e+38
0.2703585 -0.057323154 0.72300005 -2.4059033e+38
0.27171037 -0.057323154 0.72300005 -2.4191958e+38
0.27306226 -0.057323154 0.72300005 -2.392611e+38
0.27517322 -0.057481725 0.72500002 -2.392611e+38
0.27652884 -0.057481725 0.72500002 -2.4457801e+38
0.27788445 -0.057481725 0.72500002 -2.4723649e+38
0.27924007 -0.057481725 0.72500002 -2.459072e+38
0.28136975 -0.057640295 0.72700006 -2.4457795e+38
0.28272909 -0.057640295 0.72700006 -2.4590718e+38
0.28447923 -0.057719581 0.72800004 -2.4856564e+38
0.28584045 -0.057719581 0.72800004 -2.4590718e+38
0.28799072 -0.057878152 0.73000002 -2.4590718e+38
0.28975207 -0.057957437 0.73100001 -2.5255336e+38
0.29111889 -0.057957437 0.73100001 -2.5521186e+38
0.29248571 -0.057957437 0.73100001 -2.5521198e+38
0.22140564 -0.059147451 0.76400006 -2.6327568e+38
0.22225083 -0.058992613 0.76200002 -2.992542e+38
0.2233821 -0.058915198 0.76100004 nan
0.22362339 -0.058605522 0.75700003 nan
0.2244443 -0.058450688 0.75500005 nan
0.22495857 -0.058218434 0.75200003 nan
0.2248596 -0.057831343 0.74700004 -2.7937277e+38
0.22534768 -0.057599086 0.74400002 -2.6718521e+38
0.22673883 -0.057599086 0.74400002 -2.5919946e+38
0.22751673 -0.057444252 0.74200004 -2.6318773e+38
0.22859563 -0.057366833 0.74100006 -2.6850474e+38
0.22936045 -0.057211995 0.73900002 -2.6983343e+38
0.23074225 -0.057211995 0.73900002 -2.6451645e+38
0.23180991 -0.05713458 0.73800004 -2.6451645e+38
0.23255791 -0.056979742 0.73600006 -2.6318718e+38
0.23329841 -0.056824904 0.73400003 -2.5919954e+38
0.23531029 -0.056979742 0.73600006 -2.5787029e+38
0.23604329 -0.056824904 0.73400003 -2.5787029e+38
0.23741575 -0.056824904 0.73400003 -2.5787029e+38
0.23846287 -0.056747489 0.73300004 -2.5654104e+38
0.23983344 -0.056747489 0.73300004 -2.552118e+38
0.24021682 -0.056515232 0.73000002 -2.552118e+38
0.24091993 -0.056360397 0.72800004 -2.5388255e+38
0.24228115 -0.056360397 0.72800004 -2.5654115e+38
0.24330769 -0.056282979 0.72700006 -2.5521192e+38
0.24466705 -0.056282979 0.72700006 -2.5388255e+38
0.24636483 -0.056360397 0.72800004 -2.5255332e+38
0.24738577 -0.056282979 0.72700006 -2.4989486e+38
0.24874513 -0.056282979 0.72700006 -2.4856564e+38
0.24941646 -0.056128141 0.72500002 -2.4590724e+38
0.25077209 -0.056128141 0.72500002 -2.4590724e+38
0.25212771 -0.056128141 0.72500002 -2.4590718e+38
0.25278407 -0.055973306 0.72300005 -2.4590718e+38
0.25413594 -0.055973306 0.72300005 -2.4723663e+38
0.25548783 -0.055973306 0.72300005 -2.4989515e+38
0.25683969 -0.055973306 0.72300005 -2.4989501e+38
0.25819159 -0.055973306 0.72300005 -2.4723649e+38
0.25954345 -0.055973306 0.72300005 -2.4723643e+38
0.26089534 -0.055973306 0.72300005 -2.4723641e+38
0.2622472 -0.055973306 0.72300005 -2.4723641e+38
0.2635991 -0.055973306 0.72300005 -2.4590718e+38
0.26495096 -0.055973306 0.72300005 -2.4590718e+38
0.26630285 -0.055973306 0.72300005 -2.4590718e+38
0.26765475 -0.055973306 0.72300005 -2.4723647e+38
0.26900661 -0.055973306 0.72300005 -2.4723649e+38
0.27110636 -0.056128141 0.72500002 -2.432488e+38
0.27171037 -0.055973306 0.72300005 -2.4191958e+38
0.2738176 -0.056128141 0.72500002 -2.392611e+38
0.27517322 -0.056128141 0.72500002 -2.392611e+38
0.27652884 -0.056128141 0.72500002 -2.4191974e+38
0.27788445 -0.056128141 0.72500002 -2.4191974e+38
0.28001037 -0.056282979 0.72700006 -2.4457801e+38
0.28136975 -0.056282979 0.72700006 -2.4590718e+38
0.28311798 -0.056360397 0.72800004 -2.4590718e+38
0.28447923 -0.056360397 0.72800004 -2.4989486e+38
0.28584045 -0.056360397 0.72800004 -2.4989486e+38
0.28799072 -0.056515232 0.73000002 -2.4989486e+38
0.28975207 -0.056592651 0.73100001 -2.5255334e+38
0.29111889 -0.056592651 0.73100001 -2.5388261e+38
0.29248571 -0.056592651 0.73100001 -2.5388273e+38
0.22140564 -0.057721056 0.76400006 -1.8077501e+38
0.22225083 -0.057569951 0.76200002 -2.1534546e+38
0.2233821 -0.057494402 0.76100004 -2.7797553e+38
0.22421423 -0.0573433 0.75900006 nan
0.2244443 -0.057041094 0.75500005 nan
0.22555687 -0.056965545 0.75400001 nan
0.2248596 -0.056436688 0.74700004 -2.7141296e+38
0.22595346 -0.056361135 0.74600005 -2.326149e+38
0.22673883 -0.05621003 0.74400002 -2.5123448e+38
0.22751673 -0.056058932 0.74200004 -2.6584607e+38
0.22890413 -0.056058932 0.74200004 -2.6451682e+38
0.22998117 -0.055983379 0.74100006 -2.6318737e+38
0.23074225 -0.055832274 0.73900002 -2.6052887e+38
0.23212403 -0.055832274 0.73900002 -2.6318731e+38
0.23318985 -0.055756725 0.73800004 -2.5787033e+38
0.23393409 -0.055605624 0.73600006 -2.5654104e+38
0.2359497 -0.055756725 0.73800004 -2.5787029e+38
0.23668647 -0.055605624 0.73600006 -2.5787029e+38
0.23741575 -0.055454519 0.73400003 -2.5787029e+38
0.23878819 -0.055454519 0.73400003 -2.56541e+38
0.23917906 -0.055227868 0.73100001 -2.5521178e+38
0.24054588 -0.055227868 0.73100001 -2.5388255e+38
0.24158178 -0.055152316 0.73000002 -2.5388255e+38
0.24228115 -0.055001214 0.72800004 -2.5787031e+38
0.24364239 -0.055001214 0.72800004 -2.5919956e+38
0.24466705 -0.054925662 0.72700006 -2.5388255e+38
0.24636483 -0.055001214 0.72800004 -2.5255332e+38
0.24738577 -0.054925662 0.72700006 -2.4590718e+38
0.24874513 -0.054925662 0.72700006 -2.4590718e+38
0.24941646 -0.05477456 0.72500002 -2.4723649e+38
0.25077209 -0.05477456 0.72500002 -2.4590724e+38
0.25212771 -0.05477456 0.72500002 -2.4723641e+38
0.25278407 -0.054623459 0.72300005 -2.4989486e+38
0.25413594 -0.054623459 0.72300005 -2.4457824e+38
0.25548783 -0.054623459 0.72300005 -2.4457826e+38
0.25683969 -0.054623459 0.72300005 -2.498949e+38
0.25819159 -0.054623459 0.72300005 -2.4457795e+38
0.25954345 -0.054623459 0.72300005 -2.4457795e+38
0.26089534 -0.054623459 0.72300005 -2.4457795e+38
0.2622472 -0.054623459 0.72300005 -2.4457795e+38
0.2635991 -0.054623459 0.72300005 -2.4457795e+38
0.26495096 -0.054623459 0.72300005 -2.4457795e+38
0.26703951 -0.05477456 0.72500002 -2.4590718e+38
0.26839513 -0.05477456 0.72500002 -2.4723647e+38
0.26975074 -0.05477456 0.72500002 -2.4723649e+38
0.27110636 -0.05477456 0.72500002 -2.432488e+38
0.27246198 -0.05477456 0.72500002 -2.392611e+38
0.2738176 -0.05477456 0.72500002 -2.392611e+38
0.27517322 -0.05477456 0.72500002 -2.392611e+38
0.27729166 -0.054925662 0.72700006 -2.4191958e+38
0.27865103 -0.054925662 0.72700006 -2.392611e+38
0.28039554 -0.055001214 0.72800004 -2.4324874e+38
0.28175676 -0.055001214 0.72800004 -2.4457795e+38
0.28389582 -0.055152316 0.73000002 -2.4723641e+38
0.28526077 -0.055152316 0.73000002 -2.4989486e+38
0.28662574 -0.055152316 0.73000002 -2.4989486e+38
0.28838521 -0.055227868 0.73100001 -2.4989486e+38
0.29054481 -0.05537897 0.73300004 -2.5255332e+38
0.29191539 -0.05537897 0.73300004 -2.5255332e+38
0.29328597 -0.05537897 0.73300004 -2.5388259e+38
0.22084087 -0.056515709 0.76700002 -2.0337213e+38
0.22198522 -0.056442026 0.76600003 -1.9273814e+38
0.22283417 -0.056294661 0.76400006 -1.9805497e+38
0.2233821 -0.05607361 0.76100004 -2.0870443e+38
0.22421423 -0.055926237 0.75900006 -2.2336241e+38
0.2244443 -0.055631503 0.75500005 -2.3136384e+38
0.22555687 -0.055557817 0.75400001 -2.3801525e+38
0.22576265 -0.05526308 0.75000006 -2.273293e+38
0.22595346 -0.054968346 0.74600005 -2.4059065e+38
0.22734834 -0.054968346 0.74600005 -2.6586191e+38
0.22812997 -0.054820977 0.74400002 -2.6852e+38
0.22890413 -0.054673608 0.74200004 -2.6318745e+38
0.22998117 -0.054599926 0.74100006 -2.6584572e+38
0.23136669 -0.054599926 0.74100006 -2.591995e+38
0.23212403 -0.054452553 0.73900002 -2.6185802e+38
0.23318985 -0.054378875 0.73800004 -2.5787029e+38
0.23393409 -0.054231502 0.73600006 -2.5787023e+38
0.2359497 -0.054378875 0.73800004 -2.5787023e+38
0.23668647 -0.054231502 0.73600006 -2.6185798e+38
0.23741575 -0.054084133 0.73400003 -2.6185798e+38
0.23878819 -0.054084133 0.73400003 -2.5787023e+38
0.23917906 -0.053863082 0.73100001 -2.5521178e+38
0.24054588 -0.053863082 0.73100001 -2.5255332e+38
0.24158178 -0.0537894 0.73000002 -2.5255332e+38
0.24228115 -0.053642031 0.72800004 -2.5388255e+38
0.24364239 -0.053642031 0.72800004 -2.5521178e+38
0.24500361 -0.053642031 0.72800004 -2.5388255e+38
0.24636483 -0.053642031 0.72800004 -2.5388255e+38
0.24772605 -0.053642031 0.72800004 -2.5388255e+38
0.24908729 -0.053642031 0.72800004 -2.5521178e+38
0.25010449 -0.053568348 0.72700006 -2.4989486e+38
0.25077209 -0.053420976 0.72500002 -2.4590718e+38
0.25212771 -0.053420976 0.72500002 -2.4989486e+38
0.25348333 -0.053420976 0.72500002 -2.5255336e+38
0.25413594 -0.053273611 0.72300005 -2.5255379e+38
0.25548783 -0.053273611 0.72300005 -2.512246e+38
0.25683969 -0.053273611 0.72300005 -2.5388259e+38
0.25819159 -0.053273611 0.72300005 -2.4856564e+38
0.25954345 -0.053273611 0.72300005 -2.4457795e+38
0.26089534 -0.053273611 0.72300005 -2.4457795e+38
0.2622472 -0.053273611 0.72300005 -2.4457795e+38
0.26432827 -0.053420976 0.72500002 -2.4457795e+38
0.26568389 -0.053420976 0.72500002 -2.4590718e+38
0.26703951 -0.053420976 0.72500002 -2.4723641e+38
0.26839513 -0.053420976 0.72500002 -2.4723661e+38
0.26975074 -0.053420976 0.72500002 -2.4989513e+38
0.27110636 -0.053420976 0.72500002 -2.4590722e+38
