# .PCD v0.7 - Point Cloud Data file format
VERSION 0.7
FIELDS x y z rgb
SIZE 4 4 4 4
TYPE F F F F
COUNT 1 1 1 1
WIDTH 1016
HEIGHT 1
VIEWPOINT 0 0 0 1 0 0 0
POINTS 1016
DATA ascii
0.26923859 -0.061496466 0.64000005 nan
0.27163196 -0.061496466 0.64000005 nan
0.16485712 -0.062939778 0.66800004 nan
0.16585749 -0.062845558 0.66700006 nan
0.16685414 -0.06275133 0.66600001 nan
0.16759464 -0.062562883 0.66400003 nan
0.16858193 -0.062468667 0.66300005 nan
0.16956547 -0.06237445 0.66200006 nan
0.16977125 -0.061997563 0.65800005 nan
0.17074172 -0.061903343 0.65700001 -2.4600064e+38
0.17144668 -0.061714899 0.65500003 -2.8714959e+38
0.17240778 -0.061620675 0.65400004 -2.8048788e+38
0.17336516 -0.061526455 0.65300006 -2.7647995e+38
0.17431879 -0.061432239 0.65200001 -2.7116296e+38
0.17499946 -0.061243791 0.65000004 -2.7382119e+38
0.17594375 -0.061149571 0.64900005 -2.7382121e+38
0.17661132 -0.060961127 0.64700001 -2.6717503e+38
0.17754625 -0.060866907 0.64600003 -2.6850428e+38
0.17820074 -0.060678463 0.64400005 -2.6451678e+38
0.1794049 -0.060678463 0.64400005 -2.6185828e+38
0.18032861 -0.060584243 0.64300001 -2.6451645e+38
0.18124858 -0.060490023 0.64200002 -2.5919948e+38
0.182449 -0.060490023 0.64200002 -2.5654115e+38
0.18364942 -0.060490023 0.64200002 -2.525534e+38
0.18456192 -0.060395803 0.64100003 -2.5255336e+38
0.18547069 -0.06030158 0.64000005 -2.4989486e+38
0.18608403 -0.060113136 0.63800001 -2.4989486e+38
0.18698344 -0.060018919 0.63700002 -2.4989486e+38
0.1881745 -0.060018919 0.63700002 -2.4989486e+38
0.18936558 -0.060018919 0.63700002 -2.4989486e+38
0.19025752 -0.059924696 0.63600004 -2.5255332e+38
0.19144672 -0.059924696 0.63600004 -2.5255332e+38
0.19233304 -0.059830472 0.63500005 -2.4989488e+38
0.19352038 -0.059830472 0.63500005 -2.4856564e+38
0.19440107 -0.059736252 0.634 -2.4457795e+38
0.19558655 -0.059736252 0.634 -2.4457795e+38
0.19677201 -0.059736252 0.634 -2.4723641e+38
0.19826972 -0.059830472 0.63500005 -2.4856564e+38
0.19945705 -0.059830472 0.63500005 -2.5255332e+38
0.20064439 -0.059830472 0.63500005 -2.56541e+38
0.20214957 -0.059924696 0.63600004 -2.5787043e+38
0.20301905 -0.059830472 0.63500005 -2.5521196e+38
0.20420639 -0.059830472 0.63500005 -2.5388257e+38
0.20539373 -0.059830472 0.63500005 -2.5122409e+38
0.20625573 -0.059736252 0.634 -2.4590718e+38
0.2074412 -0.059736252 0.634 -2.4590718e+38
0.20862666 -0.059736252 0.634 -2.459072e+38
0.20981212 -0.059736252 0.634 -2.4457795e+38
0.2109976 -0.059736252 0.634 -2.4457795e+38
0.21218306 -0.059736252 0.634 -2.4723641e+38
0.21336852 -0.059736252 0.634 -2.5388267e+38
0.21455398 -0.059736252 0.634 -2.5654117e+38
0.21573946 -0.059736252 0.634 -2.5388267e+38
0.21692492 -0.059736252 0.634 -2.4856568e+38
0.21811038 -0.059736252 0.634 -2.4457795e+38
0.21964175 -0.059830472 0.63500005 -2.4590718e+38
0.22082908 -0.059830472 0.63500005 -2.5122417e+38
0.22236605 -0.059924696 0.63600004 -2.5521192e+38
0.22355525 -0.059924696 0.63600004 -2.5122438e+38
0.22509782 -0.060018919 0.63700002 -2.4989515e+38
0.2262889 -0.060018919 0.63700002 -2.5388269e+38
0.2278371 -0.060113136 0.63800001 -2.5388267e+38
0.23010698 -0.060395803 0.64100003 -2.5388257e+38
0.23166639 -0.060490023 0.64200002 -2.5388255e+38
0.23322953 -0.060584243 0.64300001 -2.552118e+38
0.23479642 -0.060678463 0.64400005 -2.5787029e+38
0.23673351 -0.060866907 0.64600003 -2.6185814e+38
0.23794141 -0.060866907 0.64600003 -2.6185818e+38
0.23914932 -0.060866907 0.64600003 -2.5919956e+38
0.24035722 -0.060866907 0.64600003 -2.4856566e+38
0.25923139 -0.059924696 0.63600004 nan
0.26083007 -0.060018919 0.63700002 nan
0.26202115 -0.060018919 0.63700002 nan
0.26362541 -0.060113136 0.63800001 nan
0.26481837 -0.060113136 0.63800001 nan
0.2660113 -0.060113136 0.63800001 nan
0.26720425 -0.060113136 0.63800001 nan
0.16336316 -0.06160026 0.66700006 nan
0.16461033 -0.06160026 0.66700006 nan
0.16560884 -0.061507903 0.66600001 nan
0.16635308 -0.061323192 0.66400003 nan
0.16734225 -0.061230842 0.66300005 nan
0.16858193 -0.061230842 0.66300005 nan
0.16956547 -0.061138485 0.66200006 nan
0.17002925 -0.060861424 0.65900004 nan
0.1710016 -0.06076907 0.65800005 -2.5400716e+38
0.17144668 -0.060492009 0.65500003 -2.8047749e+38
0.17267141 -0.060492009 0.65500003 -2.7914307e+38
0.17336516 -0.060307298 0.65300006 -2.804677e+38
0.17431879 -0.060214944 0.65200001 -2.7647995e+38
0.17499946 -0.060030237 0.65000004 -2.6983355e+38
0.17594375 -0.059937883 0.64900005 -2.685043e+38
0.17661132 -0.059753172 0.64700001 -2.6850428e+38
0.17782108 -0.059753172 0.64700001 -2.6850428e+38
0.17875415 -0.059660818 0.64600003 -2.6717505e+38
0.1794049 -0.059476111 0.64400005 -2.6451657e+38
0.18060906 -0.059476111 0.64400005 -2.6451639e+38
0.18153091 -0.059383754 0.64300001 -2.6052869e+38
0.18273321 -0.059383754 0.64300001 -2.6185796e+38
0.18364942 -0.059291404 0.64200002 -2.5919946e+38
0.18456192 -0.05919905 0.64100003 -2.525534e+38
0.18576048 -0.05919905 0.64100003 -2.4989492e+38
0.18666737 -0.059106693 0.64000005 -2.4723641e+38
0.18727697 -0.058921985 0.63800001 -2.4856564e+38
0.18846992 -0.058921985 0.63800001 -2.4989486e+38
0.18936558 -0.058829632 0.63700002 -2.4989486e+38
0.19025752 -0.058737278 0.63600004 -2.4989486e+38
0.19144672 -0.058737278 0.63600004 -2.4856564e+38
0.19263592 -0.058737278 0.63600004 -2.4856564e+38
0.19352038 -0.058644921 0.63500005 -2.4856564e+38
0.19470771 -0.058644921 0.63500005 -2.4856564e+38
0.19589505 -0.058644921 0.63500005 -2.4723641e+38
0.19677201 -0.058552567 0.634 -2.4723641e+38
0.19858195 -0.058737278 0.63600004 -2.4856564e+38
0.19977115 -0.058737278 0.63600004 -2.525534e+38
0.20096035 -0.058737278 0.63600004 -2.5388267e+38
0.20214957 -0.058737278 0.63600004 -2.5521182e+38
0.20333877 -0.058737278 0.63600004 -2.5255334e+38
0.20452797 -0.058737278 0.63600004 -2.5388255e+38
0.20539373 -0.058644921 0.63500005 -2.5122409e+38
0.20658107 -0.058644921 0.63500005 -2.4590718e+38
0.2077684 -0.058644921 0.63500005 -2.4457795e+38
0.20895573 -0.058644921 0.63500005 -2.4457795e+38
0.20981212 -0.058552567 0.634 -2.4457795e+38
0.2109976 -0.058552567 0.634 -2.4457795e+38
0.21218306 -0.058552567 0.634 -2.4590718e+38
0.21336852 -0.058552567 0.634 -2.525534e+38
0.21455398 -0.058552567 0.634 -2.525534e+38
0.21573946 -0.058552567 0.634 -2.5388257e+38
0.21726708 -0.058644921 0.63500005 -2.5787023e+38
0.21845442 -0.058644921 0.63500005 -2.4856572e+38
0.21998765 -0.058737278 0.63600004 -2.4989498e+38
0.22117685 -0.058737278 0.63600004 -2.5388267e+38
0.22236605 -0.058737278 0.63600004 -2.5521192e+38
0.22390676 -0.058829632 0.63700002 -2.5521192e+38
0.22509782 -0.058829632 0.63700002 -2.5388267e+38
0.22664416 -0.058921985 0.63800001 -2.5388267e+38
0.22890843 -0.05919905 0.64100003 -2.5654117e+38
0.23046596 -0.059291404 0.64200002 -2.5654131e+38
0.23166639 -0.059291404 0.64200002 -2.5787058e+38
0.23359226 -0.059476111 0.64400005 -2.5787033e+38
0.23479642 -0.059476111 0.64400005 -2.5919954e+38
0.23709996 -0.059753172 0.64700001 -2.6052909e+38
0.23830974 -0.059753172 0.64700001 -2.5919989e+38
0.2398897 -0.059845526 0.648 -2.5787035e+38
0.24110134 -0.059845526 0.648 -2.5388257e+38
0.25923139 -0.058737278 0.63600004 nan
0.26083007 -0.058829632 0.63700002 nan
0.26202115 -0.058829632 0.63700002 nan
0.26362541 -0.058921985 0.63800001 nan
0.26481837 -0.058921985 0.63800001 nan
0.2660113 -0.058921985 0.63800001 nan
0.26804191 -0.059106693 0.64000005 nan
0.16360807 -0.06044545 0.66800004 nan
0.16485712 -0.06044545 0.66800004 nan
0.16585749 -0.060354963 0.66700006 nan
0.16635308 -0.060083501 0.66400003 nan
0.16734225 -0.059993014 0.66300005 nan
0.16832764 -0.059902526 0.66200006 nan
0.16930933 -0.059812035 0.66100001 nan
0.17002925 -0.059631065 0.65900004 nan
0.1710016 -0.059540577 0.65800005 -2.5130198e+38
0.17197019 -0.05945009 0.65700001 -2.8049307e+38
0.17267141 -0.059269115 0.65500003 -2.76495e+38
0.17363064 -0.059178628 0.65400004 -2.7913845e+38
0.17458615 -0.059088141 0.65300006 -2.7249221e+38
0.17499946 -0.058816679 0.65000004 -2.6850432e+38
0.17594375 -0.058726192 0.64900005 -2.6451659e+38
0.17661132 -0.058545217 0.64700001 -2.6717503e+38
0.17782108 -0.058545217 0.64700001 -2.6850428e+38
0.17875415 -0.058454733 0.64600003 -2.6451655e+38
0.17996205 -0.058454733 0.64600003 -2.6451655e+38
0.18060906 -0.058273755 0.64400005 -2.6584572e+38
0.18181323 -0.058273755 0.64400005 -2.6052877e+38
0.18273321 -0.058183268 0.64300001 -2.6185794e+38
0.18364942 -0.058092784 0.64200002 -2.6185794e+38
0.18456192 -0.058002297 0.64100003 -2.591996e+38
0.18576048 -0.058002297 0.64100003 -2.5654112e+38
0.18666737 -0.057911806 0.64000005 -2.5521178e+38
0.18727697 -0.057730831 0.63800001 -2.5521178e+38
0.18846992 -0.057730831 0.63800001 -2.5255332e+38
0.18936558 -0.057640348 0.63700002 -2.5388255e+38
0.19055666 -0.057640348 0.63700002 -2.5255336e+38
0.19144672 -0.05754986 0.63600004 -2.4856564e+38
0.19263592 -0.05754986 0.63600004 -2.4723641e+38
0.19382513 -0.05754986 0.63600004 -2.4723641e+38
0.19470771 -0.057459369 0.63500005 -2.4856564e+38
0.19589505 -0.057459369 0.63500005 -2.4723641e+38
0.19708239 -0.057459369 0.63500005 -2.4856564e+38
0.19826972 -0.057459369 0.63500005 -2.5255332e+38
0.19977115 -0.05754986 0.63600004 -2.5388255e+38
0.20096035 -0.05754986 0.63600004 -2.5521178e+38
0.20214957 -0.05754986 0.63600004 -2.4989517e+38
0.20333877 -0.05754986 0.63600004 -2.459074e+38
0.20452797 -0.05754986 0.63600004 -2.5255336e+38
0.20571718 -0.05754986 0.63600004 -2.4989488e+38
0.20690638 -0.05754986 0.63600004 -2.4324872e+38
0.2080956 -0.05754986 0.63600004 -2.419195e+38
0.2092848 -0.05754986 0.63600004 -2.459072e+38
0.21014307 -0.057459369 0.63500005 -2.459072e+38
0.2113304 -0.057459369 0.63500005 -2.4457795e+38
0.21251774 -0.057459369 0.63500005 -2.4590718e+38
0.21370508 -0.057459369 0.63500005 -2.4989486e+38
0.21489242 -0.057459369 0.63500005 -2.4989486e+38
0.21607974 -0.057459369 0.63500005 -2.5388265e+38
0.21726708 -0.057459369 0.63500005 -2.5388267e+38
0.21879843 -0.05754986 0.63600004 -2.4723649e+38
0.21998765 -0.05754986 0.63600004 -2.4723649e+38
0.2215246 -0.057640348 0.63700002 -2.5388269e+38
0.22271568 -0.057640348 0.63700002 -2.5521192e+38
0.22390676 -0.057640348 0.63700002 -2.5654131e+38
0.2254512 -0.057730831 0.63800001 -2.5654133e+38
0.22855133 -0.057911806 0.64000005 -2.5654121e+38
0.23046596 -0.058092784 0.64200002 -2.5654106e+38
0.23202725 -0.058183268 0.64300001 -2.5654104e+38
0.23431771 -0.058454733 0.64600003 -2.5787029e+38
0.23589019 -0.058545217 0.64700001 -2.5919954e+38
0.23746641 -0.058635704 0.648 -2.6185828e+38
0.23867805 -0.058635704 0.648 -2.6318761e+38
0.24063011 -0.058816679 0.65000004 -2.5787031e+38
0.24184549 -0.058816679 0.65000004 -2.4856564e+38
0.25844792 -0.057640348 0.63700002 nan
0.25963899 -0.057640348 0.63700002 nan
0.26083007 -0.057640348 0.63700002 nan
0.26202115 -0.057640348 0.63700002 nan
0.26362541 -0.057730831 0.63800001 nan
0.26481837 -0.057730831 0.63800001 nan
0.2660113 -0.057730831 0.63800001 nan
0.26804191 -0.057911806 0.64000005 nan
0.16461033 -0.059109665 0.66700006 nan
0.16585749 -0.059109665 0.66700006 nan
0.16685414 -0.059021045 0.66600001 nan
0.16759464 -0.058843806 0.66400003 nan
0.16858193 -0.058755185 0.66300005 nan
0.16956547 -0.058666565 0.66200006 nan
0.17002925 -0.058400705 0.65900004 -3.3536104e+38
0.1710016 -0.058312085 0.65800005 -2.4728833e+38
0.17197019 -0.058223464 0.65700001 -2.7648462e+38
0.17267141 -0.058046225 0.65500003 -2.8181191e+38
0.17363064 -0.057957605 0.65400004 -2.7780902e+38
0.17458615 -0.057868984 0.65300006 -2.7647977e+38
0.17499946 -0.057603125 0.65000004 -2.7249188e+38
0.17594375 -0.057514504 0.64900005 -2.698334e+38
0.17661132 -0.057337262 0.64700001 -2.7249196e+38
0.17782108 -0.057337262 0.64700001 -2.7382119e+38
0.17903085 -0.057337262 0.64700001 -2.6717493e+38
0.17996205 -0.057248645 0.64600003 -2.6185794e+38
0.18116996 -0.057248645 0.64600003 -2.6451639e+38
0.18181323 -0.057071403 0.64400005 -2.6052871e+38
0.18301739 -0.057071403 0.64400005 -2.6185794e+38
0.18393549 -0.056982782 0.64300001 -2.6584568e+38
0.18484986 -0.056894165 0.64200002 -2.6185816e+38
0.18576048 -0.056805544 0.64100003 -2.5521196e+38
0.18695904 -0.056805544 0.64100003 -2.5388255e+38
0.18786407 -0.056716919 0.64000005 -2.5255332e+38
0.18846992 -0.056539677 0.63800001 -2.5388255e+38
0.18966287 -0.056539677 0.63800001 -2.5521178e+38
0.19055666 -0.05645106 0.63700002 -2.5388279e+38
0.19174773 -0.05645106 0.63700002 -2.5255354e+38
0.1929388 -0.05645106 0.63700002 -2.4989488e+38
0.19382513 -0.056362439 0.63600004 -2.4989488e+38
0.19501433 -0.056362439 0.63600004 -2.4856564e+38
0.19620354 -0.056362439 0.63600004 -2.4856564e+38
0.19739275 -0.056362439 0.63600004 -2.4989486e+38
0.19858195 -0.056362439 0.63600004 -2.5255332e+38
0.19977115 -0.056362439 0.63600004 -2.5388255e+38
0.20127633 -0.05645106 0.63700002 -2.5787029e+38
0.20246741 -0.05645106 0.63700002 -2.5388305e+38
0.20365848 -0.05645106 0.63700002 -2.4723685e+38
0.20484956 -0.05645106 0.63700002 -2.5388269e+38
0.20604064 -0.05645106 0.63700002 -2.525534e+38
0.20690638 -0.056362439 0.63600004 -2.4989488e+38
0.20842278 -0.05645106 0.63700002 -2.4989488e+38
0.2092848 -0.056362439 0.63600004 -2.525534e+38
0.210474 -0.056362439 0.63600004 -2.525534e+38
0.2116632 -0.056362439 0.63600004 -2.459072e+38
0.2128524 -0.056362439 0.63600004 -2.459072e+38
0.21404162 -0.056362439 0.63600004 -2.4989486e+38
0.21523082 -0.056362439 0.63600004 -2.4989486e+38
0.21642002 -0.056362439 0.63600004 -2.4989486e+38
0.21760923 -0.056362439 0.63600004 -2.4989486e+38
0.21879843 -0.056362439 0.63600004 -2.4989486e+38
0.22033353 -0.05645106 0.63700002 -2.5255332e+38
0.2215246 -0.05645106 0.63700002 -2.5388265e+38
0.22306532 -0.056539677 0.63800001 -2.5388267e+38
0.22425826 -0.056539677 0.63800001 -2.578707e+38
0.2254512 -0.056539677 0.63800001 -2.5919999e+38
0.22735465 -0.056716919 0.64000005 -2.5654125e+38
0.22855133 -0.056716919 0.64000005 -2.5654121e+38
0.23046596 -0.056894165 0.64200002 -2.5654106e+38
0.23431771 -0.057248645 0.64600003 -2.5787029e+38
0.23625477 -0.057425883 0.648 -2.5919954e+38
0.23783289 -0.057514504 0.64900005 -2.5919968e+38
0.23941472 -0.057603125 0.65000004 -2.5787045e+38
0.24137051 -0.057780363 0.65200001 -2.5388259e+38
0.24258964 -0.057780363 0.65200001 -2.3926104e+38
0.25804219 -0.056362439 0.63600004 nan
0.25963899 -0.05645106 0.63700002 nan
0.26083007 -0.05645106 0.63700002 nan
0.26202115 -0.05645106 0.63700002 nan
0.2632122 -0.05645106 0.63700002 nan
0.26481837 -0.056539677 0.63800001 nan
0.2660113 -0.056539677 0.63800001 nan
0.26720425 -0.056539677 0.63800001 nan
0.26923859 -0.056716919 0.64000005 nan
0.16333126 -0.058298137 0.67200005 nan
0.16434287 -0.058211382 0.671 nan
0.16535071 -0.058124628 0.67000002 nan
0.16660349 -0.058124628 0.67000002 nan
0.16710468 -0.057864372 0.66700006 nan
0.16759464 -0.057604112 0.66400003 nan
0.16858193 -0.057517357 0.66300005 nan
0.16956547 -0.057430603 0.66200006 -3.1810781e+38
0.17002925 -0.057170346 0.65900004 -3.2327822e+38
0.1710016 -0.057083592 0.65800005 -2.6589233e+38
0.17223193 -0.057083592 0.65800005 -2.791382e+38
0.17319866 -0.056996837 0.65700001 -2.791382e+38
0.17389615 -0.056823332 0.65500003 -2.8046743e+38
0.17458615 -0.056649826 0.65300006 -2.7382121e+38
0.17553791 -0.056563072 0.65200001 -2.7382117e+38
0.17621484 -0.056389567 0.65000004 -2.7249192e+38
0.17661132 -0.056129307 0.64700001 -2.7249178e+38
0.17782108 -0.056129307 0.64700001 -2.7382105e+38
0.17903085 -0.056129307 0.64700001 -2.6451653e+38
0.17996205 -0.056042556 0.64600003 -2.6185802e+38
0.18116996 -0.056042556 0.64600003 -2.5919952e+38
0.18237786 -0.056042556 0.64600003 -2.5521178e+38
0.18301739 -0.055869047 0.64400005 -2.6318714e+38
0.18422155 -0.055869047 0.64400005 -2.6451639e+38
0.18484986 -0.055695541 0.64200002 -2.6451661e+38
0.18576048 -0.055608787 0.64100003 -2.5919964e+38
0.18695904 -0.055608787 0.64100003 -2.6052869e+38
0.18815759 -0.055608787 0.64100003 -2.5919946e+38
0.18906075 -0.055522036 0.64000005 -2.5388255e+38
0.19025743 -0.055522036 0.64000005 -2.5388255e+38
0.19085582 -0.055348527 0.63800001 -2.5388269e+38
0.19174773 -0.055261776 0.63700002 -2.5255342e+38
0.1929388 -0.055261776 0.63700002 -2.4989486e+38
0.19382513 -0.055175021 0.63600004 -2.4856564e+38
0.19501433 -0.055175021 0.63600004 -2.4989486e+38
0.19620354 -0.055175021 0.63600004 -2.4989486e+38
0.19739275 -0.055175021 0.63600004 -2.4989486e+38
0.19858195 -0.055175021 0.63600004 -2.4989486e+38
0.19977115 -0.055175021 0.63600004 -2.5388265e+38
0.20127633 -0.055261776 0.63700002 -2.525534e+38
0.20246741 -0.055261776 0.63700002 -2.5388281e+38
0.20365848 -0.055261776 0.63700002 -2.5255354e+38
0.20484956 -0.055261776 0.63700002 -2.4989488e+38
0.20604064 -0.055261776 0.63700002 -2.4989486e+38
0.20690638 -0.055175021 0.63600004 -2.4989486e+38
0.20842278 -0.055261776 0.63700002 -2.5255332e+38
0.20961386 -0.055261776 0.63700002 -2.525534e+38
0.210474 -0.055175021 0.63600004 -2.4989492e+38
0.2116632 -0.055175021 0.63600004 -2.4989486e+38
0.2128524 -0.055175021 0.63600004 -2.4989486e+38
0.21404162 -0.055175021 0.63600004 -2.4989486e+38
0.21523082 -0.055175021 0.63600004 -2.4989486e+38
0.21676031 -0.055261776 0.63700002 -2.4856564e+38
0.21795137 -0.055261776 0.63700002 -2.4856564e+38
0.21914245 -0.055261776 0.63700002 -2.4989488e+38
0.22033353 -0.055261776 0.63700002 -2.4989488e+38
0.22187237 -0.055348527 0.63800001 -2.4989488e+38
0.22306532 -0.055348527 0.63800001 -2.5388263e+38
0.22496127 -0.055522036 0.64000005 -2.5388281e+38
0.22615795 -0.055522036 0.64000005 -2.5388283e+38
0.22770987 -0.055608787 0.64100003 -2.5388269e+38
0.22890843 -0.055608787 0.64100003 -2.5654117e+38
0.23082495 -0.055782292 0.64300001 -2.5787025e+38
0.23238809 -0.055869047 0.64400005 -2.5787023e+38
0.23468041 -0.056129307 0.64700001 -2.5919952e+38
0.23625477 -0.056216057 0.648 -2.5919954e+38
0.23819934 -0.056389567 0.65000004 -2.5787029e+38
0.23941472 -0.056389567 0.65000004 -2.5787029e+38
0.24063011 -0.056389567 0.65000004 -2.4590718e+38
0.25685298 -0.055175021 0.63600004 nan
0.25804219 -0.055175021 0.63600004 nan
0.25923139 -0.055175021 0.63600004 nan
0.26083007 -0.055261776 0.63700002 nan
0.26202115 -0.055261776 0.63700002 nan
0.2632122 -0.055261776 0.63700002 nan
0.26481837 -0.055348527 0.63800001 nan
0.2660113 -0.055348527 0.63800001 nan
0.26720425 -0.055348527 0.63800001 nan
0.26923859 -0.055522036 0.64000005 nan
0.16303946 -0.057383049 0.67600006 nan
0.16406041 -0.057298161 0.67500001 nan
0.16434287 -0.05695862 0.671 nan
0.16535071 -0.056873731 0.67000002 nan
0.16685216 -0.05695862 0.671 nan
0.16735519 -0.056703962 0.66800004 nan
0.16809945 -0.056534186 0.66600001 nan
0.16883619 -0.056364417 0.66400003 nan
0.16956547 -0.056194644 0.66200006 -3.1940063e+38
0.17054528 -0.056109756 0.66100001 -3.0457531e+38
0.17126147 -0.055939987 0.65900004 -2.7254887e+38
0.17223193 -0.055855099 0.65800005 -2.7652169e+38
0.17319866 -0.055770211 0.65700001 -2.7118391e+38
0.17389615 -0.055600442 0.65500003 -2.7913814e+38
0.17458615 -0.055430669 0.65300006 -2.724919e+38
0.17553791 -0.055345781 0.65200001 -2.7382119e+38
0.17621484 -0.055176008 0.65000004 -2.7249192e+38
0.17715725 -0.055091124 0.64900005 -2.6983343e+38
0.17782108 -0.054921348 0.64700001 -2.6983343e+38
0.17903085 -0.054921348 0.64700001 -2.7116269e+38
0.17996205 -0.054836467 0.64600003 -2.6850422e+38
0.18116996 -0.054836467 0.64600003 -2.6318714e+38
0.18181323 -0.054666691 0.64400005 -2.5919946e+38
0.18301739 -0.054666691 0.64400005 -2.6318714e+38
0.18422155 -0.054666691 0.64400005 -2.6318714e+38
0.18484986 -0.054496922 0.64200002 -2.6052873e+38
0.18576048 -0.054412033 0.64100003 -2.5787025e+38
0.18695904 -0.054412033 0.64100003 -2.6052869e+38
0.18815759 -0.054412033 0.64100003 -2.6185792e+38
0.18906075 -0.054327149 0.64000005 -2.6052869e+38
0.19025743 -0.054327149 0.64000005 -2.5787023e+38
0.19085582 -0.054157373 0.63800001 -2.5388257e+38
0.19174773 -0.054072492 0.63700002 -2.5388255e+38
0.1929388 -0.054072492 0.63700002 -2.5255332e+38
0.19412988 -0.054072492 0.63700002 -2.4989486e+38
0.19501433 -0.053987604 0.63600004 -2.5255332e+38
0.19620354 -0.053987604 0.63600004 -2.5255332e+38
0.19739275 -0.053987604 0.63600004 -2.5255332e+38
0.19858195 -0.053987604 0.63600004 -2.5255332e+38
0.19977115 -0.053987604 0.63600004 -2.5388257e+38
0.20127633 -0.054072492 0.63700002 -2.5255332e+38
0.20246741 -0.054072492 0.63700002 -2.4723649e+38
0.20365848 -0.054072492 0.63700002 -2.4590724e+38
0.20484956 -0.054072492 0.63700002 -2.4989486e+38
0.20604064 -0.054072492 0.63700002 -2.4989486e+38
0.2072317 -0.054072492 0.63700002 -2.4723641e+38
0.20842278 -0.054072492 0.63700002 -2.4989486e+38
0.20961386 -0.054072492 0.63700002 -2.4989486e+38
0.210474 -0.053987604 0.63600004 -2.4856564e+38
0.2116632 -0.053987604 0.63600004 -2.4457795e+38
0.2128524 -0.053987604 0.63600004 -2.4457795e+38
0.21404162 -0.053987604 0.63600004 -2.4457795e+38
0.21523082 -0.053987604 0.63600004 -2.4590718e+38
0.21676031 -0.054072492 0.63700002 -2.4856564e+38
0.21795137 -0.054072492 0.63700002 -2.4989486e+38
0.21914245 -0.054072492 0.63700002 -2.4989486e+38
0.22067943 -0.054157373 0.63800001 -2.5255332e+38
0.2225679 -0.054327149 0.64000005 -2.5255336e+38
0.22376458 -0.054327149 0.64000005 -2.5255336e+38
0.22496127 -0.054327149 0.64000005 -2.5388267e+38
0.22615795 -0.054327149 0.64000005 -2.5521192e+38
0.22770987 -0.054412033 0.64100003 -2.5654106e+38
0.22890843 -0.054412033 0.64100003 -2.5787029e+38
0.23082495 -0.054581806 0.64300001 -2.5787023e+38
0.23238809 -0.054666691 0.64400005 -2.5787023e+38
0.23468041 -0.054921348 0.64700001 -2.5787029e+38
0.23625477 -0.055006236 0.648 -2.5919954e+38
0.23819934 -0.055176008 0.65000004 -2.5521186e+38
0.23941472 -0.055176008 0.65000004 -2.5122415e+38
0.24063011 -0.055176008 0.65000004 -2.4590718e+38
0.25644913 -0.053902715 0.63500005 nan
0.25763649 -0.053902715 0.63500005 nan
0.25923139 -0.053987604 0.63600004 nan
0.26083007 -0.054072492 0.63700002 nan
0.26202115 -0.054072492 0.63700002 nan
0.2632122 -0.054072492 0.63700002 nan
0.26481837 -0.054157373 0.63800001 nan
0.2660113 -0.054157373 0.63800001 nan
0.26720425 -0.054157373 0.63800001 nan
0.26839721 -0.054157373 0.63800001 nan
0.16303946 -0.056120951 0.67600006 nan
0.16406041 -0.056037933 0.67500001 nan
0.16434287 -0.055705853 0.671 nan
0.16535071 -0.055622835 0.67000002 nan
0.16660349 -0.055622835 0.67000002 nan
0.16735519 -0.055456799 0.66800004 nan
0.16809945 -0.055290759 0.66600001 nan
0.16883619 -0.055124722 0.66400003 nan
0.16982162 -0.055041701 0.66300005 -3.0605615e+38
0.17054528 -0.054875661 0.66100001 -2.9923231e+38
0.17126147 -0.054709624 0.65900004 -2.7520733e+38
0.17223193 -0.054626606 0.65800005 -2.751821e+38
0.17319866 -0.054543585 0.65700001 -2.685099e+38
0.17389615 -0.054377548 0.65500003 -2.8046741e+38
0.17458615 -0.054211508 0.65300006 -2.7382119e+38
0.17580715 -0.054211508 0.65300006 -2.7249192e+38
0.17675704 -0.05412849 0.65200001 -2.7249192e+38
0.17743021 -0.053962454 0.65000004 -2.7515036e+38
0.17809592 -0.053796414 0.648 -2.7515036e+38
0.17930757 -0.053796414 0.648 -2.7116263e+38
0.18024063 -0.053713392 0.64700001 -2.7116261e+38
0.1814504 -0.053713392 0.64700001 -2.6185798e+38
0.18237786 -0.053630378 0.64600003 -2.6052873e+38
0.18358576 -0.053630378 0.64600003 -2.6052869e+38
0.18422155 -0.053464338 0.64400005 -2.6318714e+38
0.18513779 -0.053381316 0.64300001 -2.6052869e+38
0.18605028 -0.053298302 0.64200002 -2.5787023e+38
0.1872507 -0.053298302 0.64200002 -2.5787023e+38
0.18815759 -0.05321528 0.64100003 -2.6052869e+38
0.18906075 -0.053132262 0.64000005 -2.6052869e+38
0.19025743 -0.053132262 0.64000005 -2.6052869e+38
0.19145411 -0.053132262 0.64000005 -2.5388265e+38
0.19204876 -0.052966222 0.63800001 -2.525534e+38
0.1932417 -0.052966222 0.63800001 -2.5255332e+38
0.19412988 -0.052883204 0.63700002 -2.4989486e+38
0.19532095 -0.052883204 0.63700002 -2.56541e+38
0.19651203 -0.052883204 0.63700002 -2.5919946e+38
0.19770311 -0.052883204 0.63700002 -2.5255332e+38
0.19889417 -0.052883204 0.63700002 -2.5255332e+38
0.20008525 -0.052883204 0.63700002 -2.4856572e+38
0.20127633 -0.052883204 0.63700002 -2.4723647e+38
0.20246741 -0.052883204 0.63700002 -2.459072e+38
0.20365848 -0.052883204 0.63700002 -2.4457795e+38
0.20484956 -0.052883204 0.63700002 -2.4457795e+38
0.20604064 -0.052883204 0.63700002 -2.4457795e+38
0.2072317 -0.052883204 0.63700002 -2.4723641e+38
0.20842278 -0.052883204 0.63700002 -2.4856564e+38
0.20961386 -0.052883204 0.63700002 -2.4856564e+38
0.21080492 -0.052883204 0.63700002 -2.4856564e+38
0.211996 -0.052883204 0.63700002 -2.4457795e+38
0.21318708 -0.052883204 0.63700002 -2.4324872e+38
0.21404162 -0.052800186 0.63600004 -2.4856564e+38
0.21556923 -0.052883204 0.63700002 -2.4856564e+38
0.21676031 -0.052883204 0.63700002 -2.4856564e+38
0.21795137 -0.052883204 0.63700002 -2.4989486e+38
0.21948649 -0.052966222 0.63800001 -2.4989486e+38
0.22137122 -0.053132262 0.64000005 -2.5255332e+38
0.2225679 -0.053132262 0.64000005 -2.5255336e+38
0.22411421 -0.05321528 0.64100003 -2.4989488e+38
0.22531277 -0.05321528 0.64100003 -2.5255336e+38
0.22651131 -0.05321528 0.64100003 -2.5388263e+38
0.22806512 -0.053298302 0.64200002 -2.552118e+38
0.22926554 -0.053298302 0.64200002 -2.5654104e+38
0.23118393 -0.053464338 0.64400005 -2.5787029e+38
0.2331098 -0.053630378 0.64600003 -2.5919954e+38
0.23468041 -0.053713392 0.64700001 -2.5787029e+38
0.23661937 -0.053879432 0.64900005 -2.5919954e+38
0.23819934 -0.053962454 0.65000004 -2.5919968e+38
0.24015139 -0.05412849 0.65200001 -2.5787045e+38
0.24137051 -0.05412849 0.65200001 -2.5122413e+38
0.25485983 -0.052634146 0.634 nan
0.25604528 -0.052634146 0.634 nan
0.25723076 -0.052634146 0.634 nan
0.25923139 -0.052800186 0.63600004 nan
0.26083007 -0.052883204 0.63700002 nan
0.26202115 -0.052883204 0.63700002 nan
0.2632122 -0.052883204 0.63700002 nan
0.26481837 -0.052966222 0.63800001 nan
0.2660113 -0.052966222 0.63800001 nan
0.26720425 -0.052966222 0.63800001 nan
0.26839721 -0.052966222 0.63800001 nan
0.16279829 -0.0547777 0.67500001 nan
0.16406041 -0.0547777 0.67500001 nan
0.16458778 -0.054534245 0.67200005 nan
0.16559751 -0.05445309 0.671 nan
0.16685216 -0.05445309 0.671 nan
0.16735519 -0.054209635 0.66800004 nan
0.16809945 -0.054047331 0.66600001 nan
0.16883619 -0.053885028 0.66400003 nan
0.16982162 -0.053803876 0.66300005 -2.8737396e+38
0.17054528 -0.053641569 0.66100001 -2.8583138e+38
0.17126147 -0.053479265 0.65900004 -2.8316773e+38
0.17223193 -0.053398114 0.65800005 -2.7654252e+38
0.17319866 -0.053316962 0.65700001 -2.6452736e+38
0.17389615 -0.053154659 0.65500003 -2.7647993e+38
0.1748535 -0.053073507 0.65400004 -2.7116292e+38
0.17580715 -0.052992351 0.65300006 -2.7382119e+38
0.17675704 -0.0529112 0.65200001 -2.7249192e+38
0.17743021 -0.052748896 0.65000004 -2.7249192e+38
0.17837077 -0.052667744 0.64900005 -2.7249192e+38
0.17930757 -0.052586593 0.648 -2.7249178e+38
0.18024063 -0.052505437 0.64700001 -2.6850408e+38
0.1814504 -0.052505437 0.64700001 -2.6185798e+38
0.18237786 -0.052424289 0.64600003 -2.6052873e+38
0.18358576 -0.052424289 0.64600003 -2.6052869e+38
0.18422155 -0.052261982 0.64400005 -2.6318714e+38
0.18513779 -0.05218083 0.64300001 -2.6318714e+38
0.18605028 -0.052099682 0.64200002 -2.6318714e+38
0.1872507 -0.052099682 0.64200002 -2.6451637e+38
0.18815759 -0.052018527 0.64100003 -2.6983328e+38
0.18906075 -0.051937375 0.64000005 -2.6451659e+38
0.19055469 -0.052018527 0.64100003 -2.6052887e+38
0.19145411 -0.051937375 0.64000005 -2.5388257e+38
0.19204876 -0.051775068 0.63800001 -2.5255332e+38
0.1932417 -0.051775068 0.63800001 -2.5255332e+38
0.19412988 -0.05169392 0.63700002 -2.4989486e+38
0.19532095 -0.05169392 0.63700002 -2.5122409e+38
0.19651203 -0.05169392 0.63700002 -2.5388255e+38
0.19770311 -0.05169392 0.63700002 -2.5255332e+38
0.19889417 -0.05169392 0.63700002 -2.5388255e+38
0.20008525 -0.05169392 0.63700002 -2.4723649e+38
0.20127633 -0.05169392 0.63700002 -2.4723649e+38
0.20246741 -0.05169392 0.63700002 -2.4590718e+38
0.20365848 -0.05169392 0.63700002 -2.4457795e+38
0.20484956 -0.05169392 0.63700002 -2.4457795e+38
0.20604064 -0.05169392 0.63700002 -2.4457795e+38
0.2072317 -0.05169392 0.63700002 -2.4723641e+38
0.20842278 -0.05169392 0.63700002 -2.4723641e+38
0.20961386 -0.05169392 0.63700002 -2.4457795e+38
0.21080492 -0.05169392 0.63700002 -2.4590718e+38
0.211996 -0.05169392 0.63700002 -2.4590718e+38
0.21318708 -0.05169392 0.63700002 -2.4723641e+38
0.21437815 -0.05169392 0.63700002 -2.4590718e+38
0.21556923 -0.05169392 0.63700002 -2.4590718e+38
0.21710059 -0.051775068 0.63800001 -2.4989488e+38
0.21829353 -0.051775068 0.63800001 -2.4989488e+38
0.21948649 -0.051775068 0.63800001 -2.4989488e+38
0.22137122 -0.051937375 0.64000005 -2.5255336e+38
0.22291566 -0.052018527 0.64100003 -2.4723649e+38
0.22411421 -0.052018527 0.64100003 -2.4590724e+38
0.22531277 -0.052018527 0.64100003 -2.4989498e+38
0.22686468 -0.052099682 0.64200002 -2.5122423e+38
0.22806512 -0.052099682 0.64200002 -2.552118e+38
0.22962266 -0.05218083 0.64300001 -2.56541e+38
0.23118393 -0.052261982 0.64400005 -2.5787023e+38
0.23347065 -0.052505437 0.64700001 -2.5919946e+38
0.23504312 -0.052586593 0.648 -2.5919952e+38
0.23661937 -0.052667744 0.64900005 -2.6185802e+38
0.23893227 -0.0529112 0.65200001 -2.5787049e+38
0.23941472 -0.052748896 0.65000004 -2.5255356e+38
0.25485983 -0.051450461 0.634 nan
0.25604528 -0.051450461 0.634 nan
0.25723076 -0.051450461 0.634 nan
0.25882381 -0.051531613 0.63500005 nan
0.26083007 -0.05169392 0.63700002 nan
0.26160982 -0.051612768 0.63600004 nan
0.2632122 -0.05169392 0.63700002 nan
0.26481837 -0.051775068 0.63800001 nan
0.2660113 -0.051775068 0.63800001 nan
0.26720425 -0.051775068 0.63800001 nan
0.26839721 -0.051775068 0.63800001 nan
0.16303946 -0.053596754 0.67600006 nan
0.16430347 -0.053596754 0.67600006 nan
0.16532254 -0.053517468 0.67500001 nan
0.16584429 -0.053279612 0.67200005 nan
0.16710082 -0.053279612 0.67200005 nan
0.16785626 -0.053121042 0.67000002 nan
0.16835184 -0.052883185 0.66700006 nan
0.16934474 -0.0528039 0.66600001 nan
0.16982162 -0.052566048 0.66300005 -2.7137105e+38
0.17054528 -0.052407473 0.66100001 -2.8183284e+38
0.17126147 -0.052248906 0.65900004 -2.8851028e+38
0.17223193 -0.052169621 0.65800005 -2.8324063e+38
0.17319866 -0.052090336 0.65700001 -2.5922069e+38
0.17389615 -0.051931765 0.65500003 -2.7515062e+38
0.1748535 -0.05185248 0.65400004 -2.6983363e+38
0.17580715 -0.051773194 0.65300006 -2.6983357e+38
0.17675704 -0.051693909 0.65200001 -2.7249202e+38
0.17743021 -0.051535342 0.65000004 -2.7249192e+38
0.17837077 -0.051456057 0.64900005 -2.7249192e+38
0.17930757 -0.051376767 0.648 -2.6983343e+38
0.18051921 -0.051376767 0.648 -2.6983343e+38
0.1814504 -0.051297482 0.64700001 -2.6451645e+38
0.18237786 -0.0512182 0.64600003 -2.6052873e+38
0.18358576 -0.0512182 0.64600003 -2.6318714e+38
0.18479367 -0.0512182 0.64600003 -2.6318714e+38
0.18542571 -0.05105963 0.64400005 -2.6185798e+38
0.18634008 -0.050980344 0.64300001 -2.6052873e+38
0.1872507 -0.050901059 0.64200002 -2.658456e+38
0.18845113 -0.050901059 0.64200002 -2.7116251e+38
0.18935615 -0.050821774 0.64100003 -2.804781e+38
0.19055469 -0.050821774 0.64100003 -2.5919976e+38
0.19145411 -0.050742488 0.64000005 -2.5255336e+38
0.19204876 -0.050583918 0.63800001 -2.4989488e+38
0.1932417 -0.050583918 0.63800001 -2.5255332e+38
0.19412988 -0.050504636 0.63700002 -2.4989486e+38
0.19532095 -0.050504636 0.63700002 -2.4989486e+38
0.19651203 -0.050504636 0.63700002 -2.4989486e+38
0.19770311 -0.050504636 0.63700002 -2.4989486e+38
0.19889417 -0.050504636 0.63700002 -2.5255332e+38
0.20008525 -0.050504636 0.63700002 -2.4723649e+38
0.20127633 -0.050504636 0.63700002 -2.4590724e+38
0.20246741 -0.050504636 0.63700002 -2.4457811e+38
0.20365848 -0.050504636 0.63700002 -2.4457811e+38
0.20484956 -0.050504636 0.63700002 -2.459072e+38
0.20604064 -0.050504636 0.63700002 -2.459072e+38
0.2072317 -0.050504636 0.63700002 -2.4059027e+38
0.20874998 -0.050583918 0.63800001 -2.4059027e+38
0.20994292 -0.050583918 0.63800001 -2.419195e+38
0.21113586 -0.050583918 0.63800001 -2.4457797e+38
0.21232882 -0.050583918 0.63800001 -2.4590718e+38
0.21352176 -0.050583918 0.63800001 -2.4723641e+38
0.21471471 -0.050583918 0.63800001 -2.4989496e+38
0.21590765 -0.050583918 0.63800001 -2.4723649e+38
0.21778117 -0.050742488 0.64000005 -2.4723663e+38
0.21897785 -0.050742488 0.64000005 -2.4590738e+38
0.22017454 -0.050742488 0.64000005 -2.4191952e+38
0.2217171 -0.050821774 0.64100003 -2.4457797e+38
0.22326341 -0.050901059 0.64200002 -2.4590724e+38
0.22446384 -0.050901059 0.64200002 -2.4590724e+38
0.22566426 -0.050901059 0.64200002 -2.4723641e+38
0.22686468 -0.050901059 0.64200002 -2.4989486e+38
0.22877561 -0.05105963 0.64400005 -2.5388255e+38
0.22997977 -0.05105963 0.64400005 -2.5388255e+38
0.23226087 -0.051297482 0.64700001 -2.5787029e+38
0.23383148 -0.051376767 0.648 -2.5919954e+38
0.23540586 -0.051456057 0.64900005 -2.5654117e+38
0.23698395 -0.051535342 0.65000004 -2.5521192e+38
0.23819934 -0.051535342 0.65000004 -2.5388291e+38
0.23941472 -0.051535342 0.65000004 -2.4856598e+38
0.24370584 -0.051931765 0.65500003 -2.3660258e+38
0.25485983 -0.050266776 0.634 nan
0.25604528 -0.050266776 0.634 nan
0.25763649 -0.050346062 0.63500005 nan
0.25882381 -0.050346062 0.63500005 nan
0.26042062 -0.050425347 0.63600004 nan
0.26160982 -0.050425347 0.63600004 nan
0.2632122 -0.050504636 0.63700002 nan
0.26481837 -0.050583918 0.63800001 nan
0.2660113 -0.050583918 0.63800001 nan
0.26720425 -0.050583918 0.63800001 nan
0.16303946 -0.052334655 0.67600006 nan
0.16430347 -0.052334655 0.67600006 nan
0.16532254 -0.052257236 0.67500001 nan
0.16633788 -0.052179821 0.67400002 nan
0.16759814 -0.052179821 0.67400002 nan
0.16810681 -0.051947564 0.671 nan
0.16936146 -0.051947564 0.671 nan
0.16959901 -0.051637892 0.66700006 nan
0.17007776 -0.051405638 0.66400003 -2.5936103e+38
0.17054528 -0.051173382 0.66100001 -2.7914329e+38
0.17126147 -0.051018547 0.65900004 -2.8847919e+38
0.17223193 -0.050941128 0.65800005 -2.8450734e+38
0.17319866 -0.050863709 0.65700001 -2.6983886e+38
0.17389615 -0.050708875 0.65500003 -2.7249204e+38
0.1748535 -0.050631456 0.65400004 -2.6983353e+38
0.17607637 -0.050631456 0.65400004 -2.7249194e+38
0.17702813 -0.050554037 0.65300006 -2.7249194e+38
0.17797616 -0.050476618 0.65200001 -2.7249192e+38
0.17837077 -0.050244365 0.64900005 -2.7249192e+38
0.17958428 -0.050244365 0.64900005 -2.6451655e+38
0.18051921 -0.050166946 0.648 -2.6451651e+38
0.1814504 -0.050089527 0.64700001 -2.6451645e+38
0.18266018 -0.050089527 0.64700001 -2.6052873e+38
0.18358576 -0.050012112 0.64600003 -2.6185792e+38
0.18479367 -0.050012112 0.64600003 -2.6318714e+38
0.18542571 -0.049857274 0.64400005 -2.6451649e+38
0.18662988 -0.049857274 0.64400005 -2.6451649e+38
0.18754238 -0.049779855 0.64300001 -2.6185792e+38
0.18874466 -0.049779855 0.64300001 -2.6052869e+38
0.18965155 -0.049702439 0.64200002 -2.6451651e+38
0.19055469 -0.04962502 0.64100003 -2.5787027e+38
0.19175325 -0.04962502 0.64100003 -2.5388255e+38
0.19265079 -0.049547601 0.64000005 -2.5521178e+38
0.19384748 -0.049547601 0.64000005 -2.4590718e+38
0.19443464 -0.049392764 0.63800001 -2.4590718e+38
0.19562759 -0.049392764 0.63800001 -2.4989486e+38
0.19651203 -0.049315348 0.63700002 -2.4989486e+38
0.19770311 -0.049315348 0.63700002 -2.4590718e+38
0.19889417 -0.049315348 0.63700002 -2.4723641e+38
0.20008525 -0.049315348 0.63700002 -2.4723649e+38
0.20127633 -0.049315348 0.63700002 -2.4723649e+38
0.20246741 -0.049315348 0.63700002 -2.4059035e+38
0.20365848 -0.049315348 0.63700002 -2.3793187e+38
0.20484956 -0.049315348 0.63700002 -2.3926104e+38
0.2063641 -0.049392764 0.63800001 -2.3660258e+38
0.20755704 -0.049392764 0.63800001 -2.3527336e+38
0.20940438 -0.049547601 0.64000005 -2.3660258e+38
0.21060106 -0.049547601 0.64000005 -2.4059027e+38
0.21179774 -0.049547601 0.64000005 -2.4457797e+38
0.21299443 -0.049547601 0.64000005 -2.4590718e+38
0.21419111 -0.049547601 0.64000005 -2.4723641e+38
0.21538779 -0.049547601 0.64000005 -2.4723649e+38
0.21658447 -0.049547601 0.64000005 -2.5122423e+38
0.21778117 -0.049547601 0.64000005 -2.5122456e+38
0.21897785 -0.049547601 0.64000005 -2.4856608e+38
0.22051854 -0.04962502 0.64100003 -2.5255346e+38
0.22206299 -0.049702439 0.64200002 -2.5388267e+38
0.22326341 -0.049702439 0.64200002 -2.5388267e+38
0.22446384 -0.049702439 0.64200002 -2.5521192e+38
0.22601578 -0.049779855 0.64300001 -2.4989488e+38
0.22721806 -0.049779855 0.64300001 -2.5255336e+38
0.22948609 -0.050012112 0.64600003 -2.56541e+38
0.230694 -0.050012112 0.64600003 -2.56541e+38
0.23261985 -0.050166946 0.648 -2.5787029e+38
0.23383148 -0.050166946 0.648 -2.6185802e+38
0.23540586 -0.050244365 0.64900005 -2.6185802e+38
0.23661937 -0.050244365 0.64900005 -2.6451653e+38
0.23819934 -0.050321784 0.65000004 -2.5919993e+38
0.23904639 -0.050244365 0.64900005 -2.5122448e+38
0.26083007 -0.049315348 0.63700002 nan
0.26202115 -0.049315348 0.63700002 nan
0.2632122 -0.049315348 0.63700002 nan
0.26564854 -0.049547601 0.64000005 nan
0.2660113 -0.049392764 0.63800001 nan
0.26678544 -0.049315348 0.63700002 nan
0.1622541 -0.051223658 0.67800003 nan
0.16352183 -0.051223658 0.67800003 nan
0.16430347 -0.051072557 0.67600006 nan
0.16532254 -0.050997004 0.67500001 nan
0.16633788 -0.050921455 0.67400002 nan
0.16759814 -0.050921455 0.67400002 nan
0.16810681 -0.050694801 0.671 nan
0.16860424 -0.050468147 0.66800004 nan
0.16959901 -0.050392594 0.66700006 nan
0.17007776 -0.050165944 0.66400003 -2.5004595e+38
0.17080329 -0.050014839 0.66200006 -2.7915873e+38
0.17126147 -0.049788188 0.65900004 -2.8449649e+38
0.17223193 -0.049712636 0.65800005 -2.8047289e+38
0.17319866 -0.049637083 0.65700001 -2.7249219e+38
0.17442712 -0.049637083 0.65700001 -2.7515044e+38
0.1748535 -0.049410433 0.65400004 -2.7249192e+38
0.17607637 -0.049410433 0.65400004 -2.7249192e+38
0.17702813 -0.04933488 0.65300006 -2.7382119e+38
0.17797616 -0.049259327 0.65200001 -2.6584578e+38
0.17919528 -0.049259327 0.65200001 -2.6584578e+38
0.17958428 -0.049032677 0.64900005 -2.6717503e+38
0.18051921 -0.048957124 0.648 -2.6185804e+38
0.1814504 -0.048881572 0.64700001 -2.6451645e+38
0.18266018 -0.048881572 0.64700001 -2.6052873e+38
0.18386994 -0.048881572 0.64700001 -2.6318714e+38
0.18479367 -0.048806023 0.64600003 -2.6318714e+38
0.18600157 -0.048806023 0.64600003 -2.6185798e+38
0.18720947 -0.048806023 0.64600003 -2.6185798e+38
0.18783404 -0.048654921 0.64400005 -2.6185798e+38
0.18874466 -0.048579369 0.64300001 -2.6451645e+38
0.18965155 -0.04850382 0.64200002 -2.5787052e+38
0.19085197 -0.04850382 0.64200002 -2.5521204e+38
0.19175325 -0.048428267 0.64100003 -2.5388255e+38
0.19265079 -0.048352715 0.64000005 -2.5122409e+38
0.19384748 -0.048352715 0.64000005 -2.4989486e+38
0.19443464 -0.048201613 0.63800001 -2.4989486e+38
0.19562759 -0.048201613 0.63800001 -2.4989486e+38
0.19682054 -0.048201613 0.63800001 -2.5255332e+38
0.19770311 -0.048126064 0.63700002 -2.4590718e+38
0.19889417 -0.048126064 0.63700002 -2.4723641e+38
0.20039937 -0.048201613 0.63800001 -2.4723649e+38
0.20159231 -0.048201613 0.63800001 -2.4590724e+38
0.20278525 -0.048201613 0.63800001 -2.392611e+38
0.20397821 -0.048201613 0.63800001 -2.3793185e+38
0.20517115 -0.048201613 0.63800001 -2.3660258e+38
0.207011 -0.048352715 0.64000005 -2.3527336e+38
0.2082077 -0.048352715 0.64000005 -2.3128567e+38
0.20940438 -0.048352715 0.64000005 -2.326149e+38
0.21093012 -0.048428267 0.64100003 -2.4059027e+38
0.21179774 -0.048352715 0.64000005 -2.419195e+38
0.21332723 -0.048428267 0.64100003 -2.4457795e+38
0.21419111 -0.048352715 0.64000005 -2.4590718e+38
0.21538779 -0.048352715 0.64000005 -2.4723649e+38
0.21692289 -0.048428267 0.64100003 -2.4723649e+38
0.21812144 -0.048428267 0.64100003 -2.5388285e+38
0.21932 -0.048428267 0.64100003 -2.552121e+38
0.22051854 -0.048428267 0.64100003 -2.5255334e+38
0.22206299 -0.04850382 0.64200002 -2.5255332e+38
0.22326341 -0.04850382 0.64200002 -2.5388255e+38
0.22481348 -0.048579369 0.64300001 -2.5388255e+38
0.22601578 -0.048579369 0.64300001 -2.5388255e+38
0.22757144 -0.048654921 0.64400005 -2.5787029e+38
0.22948609 -0.048806023 0.64600003 -2.56541e+38
0.230694 -0.048806023 0.64600003 -2.5787023e+38
0.23261985 -0.048957124 0.648 -2.5787029e+38
0.23419234 -0.049032677 0.64900005 -2.6185802e+38
0.23540586 -0.049032677 0.64900005 -2.6318731e+38
0.23661937 -0.049032677 0.64900005 -2.6185806e+38
0.23819934 -0.049108226 0.65000004 -2.5787052e+38
0.23904639 -0.049032677 0.64900005 -2.4723655e+38
0.26366651 -0.048428267 0.64100003 nan
0.26527825 -0.04850382 0.64200002 nan
0.26481837 -0.048201613 0.63800001 nan
0.2660113 -0.048201613 0.63800001 nan
0.16321135 -0.050252564 0.68200004 nan
0.16376302 -0.050031509 0.67900002 nan
0.16430347 -0.049810458 0.67600006 nan
0.16532254 -0.049736772 0.67500001 nan
0.16633788 -0.049663089 0.67400002 nan
0.16759814 -0.049663089 0.67400002 nan
0.16810681 -0.049442034 0.671 nan
0.16961385 -0.04951572 0.67200005 nan
0.16959901 -0.0491473 0.66700006 nan
0.17059004 -0.049073614 0.66600001 -2.513439e+38
0.17080329 -0.04877888 0.66200006 -2.7781405e+38
0.17126147 -0.048557829 0.65900004 -2.8713434e+38
0.17223193 -0.048484143 0.65800005 -2.7914358e+38
0.17319866 -0.048410457 0.65700001 -2.7382135e+38
0.17442712 -0.048410457 0.65700001 -2.7647946e+38
0.1748535 -0.048189405 0.65400004 -2.7382099e+38
0.17607637 -0.048189405 0.65400004 -2.6584568e+38
0.17702813 -0.048115723 0.65300006 -2.6850416e+38
0.17824912 -0.048115723 0.65300006 -2.6451645e+38
0.17919528 -0.048042037 0.65200001 -2.6451645e+38
0.17986098 -0.047894672 0.65000004 -2.6717503e+38
0.18079779 -0.047820985 0.64900005 -2.6451653e+38
0.18173085 -0.047747303 0.648 -2.6185798e+38
0.18266018 -0.047673617 0.64700001 -2.5919948e+38
0.18386994 -0.047673617 0.64700001 -2.6318718e+38
0.18479367 -0.047599934 0.64600003 -2.6451643e+38
0.18600157 -0.047599934 0.64600003 -2.6185792e+38
0.18720947 -0.047599934 0.64600003 -2.5919946e+38
0.18841738 -0.047599934 0.64600003 -2.6185798e+38
0.1890382 -0.047452565 0.64400005 -2.6451645e+38
0.18994696 -0.047378879 0.64300001 -2.6052913e+38
0.19085197 -0.0473052 0.64200002 -2.5388291e+38
0.19175325 -0.047231514 0.64100003 -2.5388255e+38
0.19295181 -0.047231514 0.64100003 -2.5255332e+38
0.19384748 -0.047157828 0.64000005 -2.4723649e+38
0.19504416 -0.047157828 0.64000005 -2.4590724e+38
0.19562759 -0.047010459 0.63800001 -2.4590718e+38
0.19682054 -0.047010459 0.63800001 -2.4723641e+38
0.19801348 -0.047010459 0.63800001 -2.4989486e+38
0.19889417 -0.046936776 0.63700002 -2.4989486e+38
0.20102759 -0.047157828 0.64000005 -2.4989486e+38
0.20159231 -0.047010459 0.63800001 -2.4590718e+38
0.20342095 -0.047157828 0.64000005 -2.419195e+38
0.20461763 -0.047157828 0.64000005 -2.4324874e+38
0.20581432 -0.047157828 0.64000005 -2.4457797e+38
0.20733446 -0.047231514 0.64100003 -2.419195e+38
0.208533 -0.047231514 0.64100003 -2.4324872e+38
0.20973156 -0.047231514 0.64100003 -2.4324872e+38
0.21093012 -0.047231514 0.64100003 -2.4457795e+38
0.21212867 -0.047231514 0.64100003 -2.4590718e+38
0.21332723 -0.047231514 0.64100003 -2.4590718e+38
0.21452577 -0.047231514 0.64100003 -2.4590718e+38
0.21572433 -0.047231514 0.64100003 -2.4590718e+38
0.21692289 -0.047231514 0.64100003 -2.4989486e+38
0.21812144 -0.047231514 0.64100003 -2.5388257e+38
0.21932 -0.047231514 0.64100003 -2.5255334e+38
0.22086257 -0.0473052 0.64200002 -2.4989486e+38
0.22240889 -0.047378879 0.64300001 -2.5255332e+38
0.22361119 -0.047378879 0.64300001 -2.5388255e+38
0.2251631 -0.047452565 0.64400005 -2.5388255e+38
0.22636726 -0.047452565 0.64400005 -2.56541e+38
0.22827819 -0.047599934 0.64600003 -2.56541e+38
0.22984132 -0.047673617 0.64700001 -2.552118e+38
0.2310511 -0.047673617 0.64700001 -2.5787029e+38
0.23261985 -0.047747303 0.648 -2.6185802e+38
0.23419234 -0.047820985 0.64900005 -2.6185802e+38
0.23576857 -0.047894672 0.65000004 -2.5919954e+38
0.23661937 -0.047820985 0.64900005 -2.5919954e+38
0.23819934 -0.047894672 0.65000004 -2.552118e+38
0.24088804 -0.048189405 0.65400004 -2.4723641e+38
0.26246795 -0.047231514 0.64100003 nan
0.26366651 -0.047231514 0.64100003 nan
0.26362541 -0.047010459 0.63800001 nan
0.2660636 -0.047231514 0.64100003 nan
0.16321135 -0.04897926 0.68200004 nan
0.16400421 -0.048835628 0.68000001 nan
0.16406041 -0.04847654 0.67500001 nan
0.16507763 -0.048404727 0.67400002 nan
0.16633788 -0.048404727 0.67400002 nan
0.16759814 -0.048404727 0.67400002 nan
0.16835733 -0.048261091 0.67200005 nan
0.16936146 -0.048189271 0.671 nan
0.17036182 -0.048117455 0.67000002 nan
0.17084618 -0.047902003 0.66700006 -2.4999378e+38
0.17183535 -0.047830187 0.66600001 -2.7647946e+38
0.17178123 -0.047471102 0.66100001 -2.8314122e+38
0.17301719 -0.047471102 0.66100001 -2.8046768e+38
0.17372589 -0.04732747 0.65900004 -2.7249219e+38
0.17469262 -0.04725565 0.65800005 -2.6983351e+38
0.1756556 -0.047183834 0.65700001 -2.6451653e+38
0.1763456 -0.047040202 0.65500003 -2.6584572e+38
0.17757034 -0.047040202 0.65500003 -2.6584574e+38
0.17879507 -0.047040202 0.65500003 -2.6451653e+38
0.17974496 -0.046968382 0.65400004 -2.6451653e+38
0.18069111 -0.046896566 0.65300006 -2.6584574e+38
0.18107636 -0.046681114 0.65000004 -2.6451649e+38
0.18201131 -0.046609297 0.64900005 -2.6185798e+38
0.18294249 -0.046537478 0.648 -2.6052873e+38
0.18415414 -0.046537478 0.648 -2.6052869e+38
0.18507972 -0.046465661 0.64700001 -2.6185792e+38
0.18628949 -0.046465661 0.64700001 -2.6185798e+38
0.18749927 -0.046465661 0.64700001 -2.5919948e+38
0.18841738 -0.046393845 0.64600003 -2.6052869e+38
0.18962528 -0.046393845 0.64600003 -2.6185794e+38
0.19024237 -0.046250209 0.64400005 -2.5654125e+38
0.19144653 -0.046250209 0.64400005 -2.5388273e+38
0.19205239 -0.046106577 0.64200002 -2.5388255e+38
0.19295181 -0.046034761 0.64100003 -2.5521178e+38
0.19415036 -0.046034761 0.64100003 -2.5255334e+38
0.19504416 -0.045962945 0.64000005 -2.4989486e+38
0.19654746 -0.046034761 0.64100003 -2.4590718e+38
0.19743754 -0.045962945 0.64000005 -2.4590718e+38
0.19863422 -0.045962945 0.64000005 -2.4723641e+38
0.19920643 -0.045819309 0.63800001 -2.5122409e+38
0.20134169 -0.046034761 0.64100003 -2.4989501e+38
0.20254023 -0.046034761 0.64100003 -2.4723651e+38
0.20405664 -0.046106577 0.64200002 -2.419195e+38
0.20525706 -0.046106577 0.64200002 -2.419195e+38
0.20645748 -0.046106577 0.64200002 -2.459072e+38
0.2076579 -0.046106577 0.64200002 -2.459072e+38
0.20885833 -0.046106577 0.64200002 -2.459072e+38
0.21005875 -0.046106577 0.64200002 -2.459072e+38
0.21125917 -0.046106577 0.64200002 -2.4590724e+38
0.21245959 -0.046106577 0.64200002 -2.4457799e+38
0.21366003 -0.046106577 0.64200002 -2.5255332e+38
0.21486045 -0.046106577 0.64200002 -2.4989486e+38
0.21606088 -0.046106577 0.64200002 -2.4989486e+38
0.2172613 -0.046106577 0.64200002 -2.4989486e+38
0.21846172 -0.046106577 0.64200002 -2.4723641e+38
0.22000431 -0.046178393 0.64300001 -2.4590718e+38
0.22155061 -0.046250209 0.64400005 -2.4856564e+38
0.22344658 -0.046393845 0.64600003 -2.4989486e+38
0.22465448 -0.046393845 0.64600003 -2.5255332e+38
0.22621201 -0.046465661 0.64700001 -2.5255332e+38
0.22742178 -0.046465661 0.64700001 -2.5388255e+38
0.22863156 -0.046465661 0.64700001 -2.5388255e+38
0.23019657 -0.046537478 0.648 -2.5388255e+38
0.23140821 -0.046537478 0.648 -2.6185804e+38
0.2333378 -0.046681114 0.65000004 -2.6052897e+38
0.23455319 -0.046681114 0.65000004 -2.5787047e+38
0.23649402 -0.046824746 0.65200001 -2.5919956e+38
0.23771314 -0.046824746 0.65200001 -2.5787029e+38
0.23893227 -0.046824746 0.65200001 -2.5388255e+38
0.24088804 -0.046968382 0.65400004 -2.4723641e+38
0.2628774 -0.046106577 0.64200002 nan
0.26407784 -0.046106577 0.64200002 nan
0.26362541 -0.045819309 0.63800001 nan
0.16321135 -0.04770596 0.68200004 nan
0.16303946 -0.047286261 0.67600006 nan
0.16406041 -0.047216307 0.67500001 nan
0.16532254 -0.047216307 0.67500001 nan
0.16584429 -0.047006458 0.67200005 nan
0.16759814 -0.047146361 0.67400002 nan
0.16835733 -0.047006458 0.67200005 nan
0.16961385 -0.047006458 0.67200005 nan
0.17036182 -0.046866558 0.67000002 nan
0.17110232 -0.046726659 0.66800004 -2.4468222e+38
0.17183535 -0.046586759 0.66600001 -2.7647942e+38
0.1720411 -0.046306957 0.66200006 -2.7780867e+38
0.17301719 -0.046237007 0.66100001 -2.7913845e+38
0.17372589 -0.046097107 0.65900004 -2.7382143e+38
0.17495809 -0.046097107 0.65900004 -2.6983343e+38
