# .PCD v0.7 - Point Cloud Data file format
VERSION 0.7
FIELDS x y z rgb
SIZE 4 4 4 4
TYPE F F F F
COUNT 1 1 1 1
WIDTH 1009
HEIGHT 1
VIEWPOINT 0 0 0 1 0 0 0
POINTS 1009
DATA ascii
0.1878088 -0.091593474 0.76100004 -3.1124335e+38
0.18948038 -0.091713831 0.76200002 -3.1257779e+38
0.19140625 -0.091954544 0.76400006 -3.1258278e+38
0.19283479 -0.091954544 0.76400006 -3.0990871e+38
0.19502616 -0.092315629 0.76700002 -3.0590013e+38
0.19799715 -0.093037784 0.77300006 -3.0589492e+38
0.19970052 -0.093158141 0.77400005 -3.0321576e+38
0.20114776 -0.093158141 0.77400005 -2.9387467e+38
0.20259501 -0.093158141 0.77400005 -2.9782587e+38
0.20456949 -0.093398862 0.77600002 -2.9381212e+38
0.20655145 -0.093639582 0.77800006 -2.8846915e+38
0.20854089 -0.093880303 0.78000003 -2.8179692e+38
0.35519069 -0.094482102 0.78500003 -2.5787047e+38
0.35665852 -0.094482102 0.78500003 -2.5787056e+38
0.35812631 -0.094482102 0.78500003 -2.5521204e+38
0.35959411 -0.094482102 0.78500003 -2.5122419e+38
0.36014199 -0.094241381 0.78300005 -2.4856574e+38
0.36160606 -0.094241381 0.78300005 -2.4723659e+38
0.36307013 -0.094241381 0.78300005 -2.4590732e+38
0.3645342 -0.094241381 0.78300005 -2.4324876e+38
0.36506343 -0.09400066 0.78100002 -2.4191956e+38
0.36652374 -0.09400066 0.78100002 -2.4059039e+38
0.36751291 -0.093880303 0.78000003 -2.3926116e+38
0.3670792 -0.093398862 0.77600002 -2.3793193e+38
0.36853018 -0.093398862 0.77600002 -2.3527346e+38
0.36998117 -0.093398862 0.77600002 -2.2995654e+38
0.37143216 -0.093398862 0.77600002 -2.2862728e+38
0.37288314 -0.093398862 0.77600002 -2.2995644e+38
0.37336934 -0.093158141 0.77400005 -2.2995644e+38
0.37433231 -0.093037784 0.77300006 -2.2995644e+38
0.37480542 -0.092797063 0.77100003 -2.3261492e+38
0.37624705 -0.092797063 0.77100003 -2.3394415e+38
0.37768868 -0.092797063 0.77100003 -2.3527342e+38
0.37814686 -0.092556342 0.76900005 -2.3527348e+38
0.37958473 -0.092556342 0.76900005 -2.3394425e+38
0.38102263 -0.092556342 0.76900005 -2.2862732e+38
0.38146579 -0.092315629 0.76700002 -2.2729807e+38
0.38240075 -0.092195265 0.76600003 -2.2729801e+38
0.38383302 -0.092195265 0.76600003 -2.2862722e+38
0.38526529 -0.092195265 0.76600003 -2.2862722e+38
0.38669759 -0.092195265 0.76600003 -2.2862722e+38
0.38812986 -0.092195265 0.76600003 -2.2729803e+38
0.38956216 -0.092195265 0.76600003 -2.2729803e+38
0.38997358 -0.091954544 0.76400006 -2.3527342e+38
0.39037749 -0.091713831 0.76200002 -2.3926112e+38
0.39180228 -0.091713831 0.76200002 -2.4324887e+38
0.39529127 -0.092195265 0.76600003 -2.4723661e+38
0.39672357 -0.092195265 0.76600003 -2.5122458e+38
0.39711627 -0.091954544 0.76400006 -2.485662e+38
0.3975015 -0.091713831 0.76200002 -2.4059065e+38
0.39997336 -0.091954544 0.76400006 -2.3394437e+38
0.40035111 -0.091713831 0.76200002 -2.3128589e+38
0.40124863 -0.091593474 0.76100004 -2.3261512e+38
0.40320069 -0.091713831 0.76200002 -2.4059059e+38
0.40409449 -0.091593474 0.76100004 -2.4590758e+38
0.4044517 -0.091352753 0.75900006 -2.4723681e+38
0.4048014 -0.09111204 0.75700003 -2.4856602e+38
0.40621686 -0.09111204 0.75700003 -2.4723671e+38
0.40655532 -0.090871319 0.75500005 -2.4723661e+38
0.15377669 -0.087802827 0.74100006 nan
0.15474345 -0.087565847 0.73900002 nan
0.15612523 -0.087565847 0.73900002 nan
0.15750703 -0.087565847 0.73900002 nan
0.15888883 -0.087565847 0.73900002 nan
0.16027063 -0.087565847 0.73900002 nan
0.16165242 -0.087565847 0.73900002 nan
0.16303422 -0.087565847 0.73900002 nan
0.1673083 -0.089106247 0.75200003 -2.1137861e+38
0.1687144 -0.089106247 0.75200003 -2.3394413e+38
0.17057297 -0.089343235 0.75400001 -2.8990198e+38
0.17198281 -0.089343235 0.75400001 -2.9791901e+38
0.17339265 -0.089343235 0.75400001 -3.1259785e+38
0.1748025 -0.089343235 0.75400001 -3.1258223e+38
0.17621234 -0.089343235 0.75400001 -3.0324115e+38
0.17715104 -0.089106247 0.75200003 -3.058689e+38
0.17855714 -0.089106247 0.75200003 -3.0453446e+38
0.18044187 -0.089343235 0.75400001 -3.0188616e+38
0.18209289 -0.089461721 0.75500005 -2.9655363e+38
0.18350461 -0.089461721 0.75500005 -3.0186061e+38
0.18540616 -0.08969871 0.75700003 -3.1254132e+38
0.18632804 -0.089461721 0.75500005 -3.1125347e+38
0.18923172 -0.090172678 0.76100004 -3.1125866e+38
0.19065467 -0.090172678 0.76100004 -3.1258799e+38
0.19232999 -0.090291172 0.76200002 -3.1258799e+38
0.19426334 -0.090528153 0.76400006 -3.0857946e+38
0.19697258 -0.091120616 0.76900005 -3.0324691e+38
0.19944252 -0.091594584 0.77300006 -3.018762e+38
0.20088789 -0.091594584 0.77300006 -3.0054696e+38
0.20259501 -0.091713078 0.77400005 -3.0188119e+38
0.20456949 -0.091950059 0.77600002 -3.0188121e+38
0.36014199 -0.09277951 0.78300005 -2.565411e+38
0.36160606 -0.09277951 0.78300005 -2.5255352e+38
0.36214277 -0.092542522 0.78100002 -2.5122427e+38
0.36360309 -0.092542522 0.78100002 -2.4989503e+38
0.36506343 -0.092542522 0.78100002 -2.4856578e+38
0.36652374 -0.092542522 0.78100002 -2.4989501e+38
0.36657056 -0.092187047 0.77800006 -2.4723651e+38
0.3670792 -0.091950059 0.77600002 -2.4457807e+38
0.36853018 -0.091950059 0.77600002 -2.4059033e+38
0.36902761 -0.091713078 0.77400005 -2.3660266e+38
0.37047487 -0.091713078 0.77400005 -2.3394419e+38
0.37192211 -0.091713078 0.77400005 -2.3261496e+38
0.37336934 -0.091713078 0.77400005 -2.3261496e+38
0.37336379 -0.091357604 0.77100003 -2.2995648e+38
0.37383318 -0.091120616 0.76900005 -2.2862726e+38
0.37527105 -0.091120616 0.76900005 -2.2995648e+38
0.37670895 -0.091120616 0.76900005 -2.2995648e+38
0.37814686 -0.091120616 0.76900005 -2.3261492e+38
0.3785975 -0.090883635 0.76700002 -2.2995644e+38
0.38003165 -0.090883635 0.76700002 -2.2995648e+38
0.38096845 -0.090765141 0.76600003 -2.2729803e+38
0.38140231 -0.090528153 0.76400006 -2.2729799e+38
0.38283086 -0.090528153 0.76400006 -2.2729799e+38
0.3842594 -0.090528153 0.76400006 -2.2729799e+38
0.38568795 -0.090528153 0.76400006 -2.2729799e+38
0.38711649 -0.090528153 0.76400006 -2.2463961e+38
0.38752788 -0.090291172 0.76200002 -2.2198116e+38
0.38895267 -0.090291172 0.76200002 -2.2862724e+38
0.39037749 -0.090291172 0.76200002 -2.3394415e+38
0.3912881 -0.090172678 0.76100004 -2.4059037e+38
0.39322707 -0.090291172 0.76200002 -2.4590734e+38
0.39568773 -0.090528153 0.76400006 -2.5257985e+38
0.39607668 -0.090291172 0.76200002 -2.5526445e+38
0.39593655 -0.08993569 0.75900006 -2.4598068e+38
0.39892629 -0.090291172 0.76200002 -2.3133313e+38
0.39877492 -0.08993569 0.75900006 -2.2199748e+38
0.40019411 -0.08993569 0.75900006 -2.1799432e+38
0.40055504 -0.08969871 0.75700003 -2.2729874e+38
0.40197051 -0.08969871 0.75700003 -2.3793248e+38
0.40338597 -0.08969871 0.75700003 -2.445785e+38
0.40373191 -0.089461721 0.75500005 -2.4989523e+38
0.40514362 -0.089461721 0.75500005 -2.4856596e+38
0.40655532 -0.089461721 0.75500005 -2.4590746e+38
0.1531541 -0.086069502 0.73800004 nan
0.15453404 -0.086069502 0.73800004 nan
0.15612523 -0.086186126 0.73900002 nan
0.15729389 -0.086069502 0.73800004 nan
0.15867382 -0.086069502 0.73800004 nan
0.15962 -0.085836254 0.73600006 nan
0.16143367 -0.086069502 0.73800004 nan
0.16281359 -0.086069502 0.73800004 nan
0.16508347 -0.086536005 0.74200004 -2.2606824e+38
0.16647087 -0.086536005 0.74200004 -2.5255334e+38
0.16898941 -0.087119132 0.74700004 -2.7915885e+38
0.17152661 -0.087702259 0.75200003 -2.9789807e+38
0.17178291 -0.087119132 0.74700004 -3.1392177e+38
0.17433882 -0.087702259 0.75200003 -3.0857916e+38
0.17527753 -0.087469004 0.75000006 -3.0191217e+38
0.17667989 -0.087469004 0.75000006 -3.0588464e+38
0.17808226 -0.087469004 0.75000006 -3.0321576e+38
0.17948462 -0.087469004 0.75000006 -3.0189144e+38
0.18136935 -0.087702259 0.75200003 -2.9789333e+38
0.18326156 -0.087935507 0.75400001 -2.978988e+38
0.1846714 -0.087935507 0.75400001 -3.0990879e+38
0.18632804 -0.088052131 0.75500005 -3.1125862e+38
0.18823707 -0.088285387 0.75700003 -3.1125862e+38
0.1901536 -0.088518627 0.75900006 -3.1657038e+38
0.19207759 -0.088751882 0.76100004 -3.1790482e+38
0.19426334 -0.089101754 0.76400006 -3.1392231e+38
0.19646031 -0.089451641 0.76700002 -3.0858455e+38
0.19841047 -0.089684881 0.76900005 -3.0589506e+38
0.20036812 -0.089918137 0.77100003 -3.0588987e+38
0.20233326 -0.090151384 0.77300006 -3.0589504e+38
0.36459601 -0.090967767 0.78000003 -2.5388279e+38
0.36605448 -0.090967767 0.78000003 -2.5388275e+38
0.36657056 -0.090734512 0.77800006 -2.525535e+38
0.3670792 -0.090501264 0.77600002 -2.5122425e+38
0.36853018 -0.090501264 0.77600002 -2.4723655e+38
0.36902761 -0.090268008 0.77400005 -2.4059049e+38
0.36999619 -0.090151384 0.77300006 -2.4059047e+38
0.37144154 -0.090151384 0.77300006 -2.3926124e+38
0.37288693 -0.090151384 0.77300006 -2.3926122e+38
0.37239528 -0.089684881 0.76900005 -2.3261504e+38
0.37383318 -0.089684881 0.76900005 -2.3128581e+38
0.37527105 -0.089684881 0.76900005 -2.2862734e+38
0.3757292 -0.089451641 0.76700002 -2.2862734e+38
0.37716335 -0.089451641 0.76700002 -2.2862722e+38
0.3785975 -0.089451641 0.76700002 -2.2862722e+38
0.37953618 -0.089335009 0.76600003 -2.2995659e+38
0.37997377 -0.089101754 0.76400006 -2.2862734e+38
0.38140231 -0.089101754 0.76400006 -2.2596878e+38
0.38283086 -0.089101754 0.76400006 -2.2596876e+38
0.38325346 -0.088868514 0.76200002 -2.2596876e+38
0.38467827 -0.088868514 0.76200002 -2.2596876e+38
0.38559639 -0.088751882 0.76100004 -2.2463957e+38
0.38701931 -0.088751882 0.76100004 -2.2198112e+38
0.38742137 -0.088518627 0.75900006 -2.1932262e+38
0.38986519 -0.088751882 0.76100004 -2.1932262e+38
0.39025977 -0.088518627 0.75900006 -2.1932268e+38
0.39167896 -0.088518627 0.75900006 -2.2065195e+38
0.39465189 -0.088868514 0.76200002 -2.3265163e+38
0.3934778 -0.088285387 0.75700003 -2.9533916e+38
0.39489323 -0.088285387 0.75700003 -3.2472858e+38
0.39630869 -0.088285387 0.75700003 -3.3142709e+38
0.39772415 -0.088285387 0.75700003 -3.140797e+38
0.39808506 -0.088052131 0.75500005 -2.5670943e+38
0.39949676 -0.088052131 0.75500005 -2.1136954e+38
0.40090847 -0.088052131 0.75500005 -2.0204395e+38
0.40232018 -0.088052131 0.75500005 -2.0868959e+38
0.40319717 -0.087935507 0.75400001 -2.1932278e+38
0.404607 -0.087935507 0.75400001 -2.3128587e+38
0.40493989 -0.087702259 0.75200003 -2.4324901e+38
0.15273906 -0.084462136 0.73600006 nan
0.15411526 -0.084462136 0.73600006 nan
0.15591396 -0.084691644 0.73800004 nan
0.15686762 -0.084462136 0.73600006 nan
0.15824382 -0.084462136 0.73600006 nan
0.15962 -0.084462136 0.73600006 nan
0.16099618 -0.084462136 0.73600006 nan
0.16237238 -0.084462136 0.73600006 nan
0.16374856 -0.084462136 0.73600006 -3.0613973e+38
0.16557345 -0.084691644 0.73800004 -2.6593545e+38
0.16695337 -0.084691644 0.73800004 -2.3261595e+38
0.16924569 -0.085150681 0.74200004 -2.7386336e+38
0.17155294 -0.085609712 0.74600005 -3.0722437e+38
0.17364332 -0.085953988 0.74900001 -3.0457066e+38
0.17457642 -0.085724473 0.74700004 -3.0723435e+38
0.17644431 -0.085953988 0.74900001 -3.072295e+38
0.17784481 -0.085953988 0.74900001 -3.0855873e+38
0.17924531 -0.085953988 0.74900001 -3.0590011e+38
0.18088698 -0.086068749 0.75000006 -3.01902e+38
0.18228935 -0.086068749 0.75000006 -3.0321586e+38
0.18418156 -0.086298265 0.75200003 -3.1388617e+38
0.18608125 -0.086527787 0.75400001 -3.1257223e+38
0.18773974 -0.086642541 0.75500005 -3.1257223e+38
0.1901536 -0.087101571 0.75900006 -3.165755e+38
0.19207759 -0.087331086 0.76100004 -3.2057358e+38
0.19375479 -0.087445848 0.76200002 -3.192549e+38
0.19646031 -0.088019639 0.76700002 -3.2191338e+38
0.19841047 -0.088249154 0.76900005 -3.1258288e+38
0.36613315 -0.088822946 0.77400005 -2.5521204e+38
0.36758038 -0.088822946 0.77400005 -2.5255356e+38
0.36855081 -0.088708192 0.77300006 -2.4856598e+38
0.36999619 -0.088708192 0.77300006 -2.459075e+38
0.37144154 -0.088708192 0.77300006 -2.4324903e+38
0.37192217 -0.08847867 0.77100003 -2.3926126e+38
0.37336379 -0.08847867 0.77100003 -2.3926124e+38
0.37286091 -0.088019639 0.76700002 -2.3793199e+38
0.37429506 -0.088019639 0.76700002 -2.3261506e+38
0.37523934 -0.087904878 0.76600003 -2.3261504e+38
0.37568814 -0.087675363 0.76400006 -2.299565e+38
0.37711668 -0.087675363 0.76400006 -2.2862726e+38
0.37854522 -0.087675363 0.76400006 -2.2995656e+38
0.37997377 -0.087675363 0.76400006 -2.2862734e+38
0.38040388 -0.087445848 0.76200002 -2.2729803e+38
0.38182867 -0.087445848 0.76200002 -2.2729801e+38
0.38325346 -0.087445848 0.76200002 -2.2596876e+38
0.38417345 -0.087331086 0.76100004 -2.2596876e+38
0.38559639 -0.087331086 0.76100004 -2.2729799e+38
0.38600218 -0.087101571 0.75900006 -2.2596878e+38
0.38640052 -0.086872056 0.75700003 -2.100181e+38
0.38679135 -0.086642541 0.75500005 -2.0204278e+38
0.38923141 -0.086872056 0.75700003 -1.9805528e+38
0.38961476 -0.086642541 0.75500005 -1.9406765e+38
0.39102647 -0.086642541 0.75500005 -1.9008013e+38
0.3924382 -0.086642541 0.75500005 -3.0079205e+38
0.39384991 -0.086642541 0.75500005 nan
0.39526162 -0.086642541 0.75500005 nan
0.39667332 -0.086642541 0.75500005 nan
0.3975578 -0.086527787 0.75400001 -3.3282398e+38
0.39896762 -0.086527787 0.75400001 -2.4875416e+38
0.40037748 -0.086527787 0.75400001 -2.1940158e+38
0.40072158 -0.086298265 0.75200003 -1.9408909e+38
0.40212768 -0.086298265 0.75200003 -1.79447e+38
0.40246055 -0.086068749 0.75000006 -2.0470196e+38
0.40386289 -0.086068749 0.75000006 -2.3793222e+38
0.15232401 -0.082862228 0.73400003 nan
0.15369646 -0.082862228 0.73400003 nan
0.15549144 -0.083088018 0.73600006 nan
0.15644136 -0.082862228 0.73400003 nan
0.1578138 -0.082862228 0.73400003 nan
0.15918624 -0.082862228 0.73400003 nan
0.1605587 -0.082862228 0.73400003 nan
0.16237238 -0.083088018 0.73600006 nan
0.16419353 -0.083313793 0.73800004 nan
0.16579781 -0.083426684 0.73900002 -3.0740192e+38
0.16695337 -0.083313793 0.73800004 -2.1400666e+38
0.16833331 -0.083313793 0.73800004 -2.6053414e+38
0.1699432 -0.083426684 0.73900002 -2.8849509e+38
0.17202049 -0.083765358 0.74200004 -3.0853232e+38
0.1738753 -0.083991148 0.74400002 -3.2453523e+38
0.17573759 -0.084216923 0.74600005 -3.1257777e+38
0.17736994 -0.084329814 0.74700004 -3.0990887e+38
0.17876668 -0.084329814 0.74700004 -3.1256706e+38
0.18064579 -0.084555604 0.74900001 -3.0856372e+38
0.18204629 -0.084555604 0.74900001 -3.032158e+38
0.18369173 -0.084668487 0.75000006 -3.072191e+38
0.18558766 -0.084894277 0.75200003 -3.0988776e+38
0.18773974 -0.085232943 0.75500005 -3.1255662e+38
0.18915145 -0.085232943 0.75500005 -3.1390148e+38
0.19157279 -0.085684508 0.75900006 -3.1657034e+38
0.19350052 -0.08591029 0.76100004 -3.166016e+38
0.1951796 -0.086023189 0.76200002 -3.1927567e+38
0.19789445 -0.086587645 0.76700002 -3.179361e+38
0.36855081 -0.087264992 0.77300006 -2.5521222e+38
0.36903891 -0.087039202 0.77100003 -2.5255372e+38
0.37048054 -0.087039202 0.77100003 -2.4856596e+38
0.37192217 -0.087039202 0.77100003 -2.4457819e+38
0.37239528 -0.08681342 0.76900005 -2.4590744e+38
0.37237477 -0.086474746 0.76600003 -2.4324895e+38
0.37380704 -0.086474746 0.76600003 -2.4059049e+38
0.37425962 -0.086248964 0.76400006 -2.3793197e+38
0.37568814 -0.086248964 0.76400006 -2.3394435e+38
0.37711668 -0.086248964 0.76400006 -2.326151e+38
0.37854522 -0.086248964 0.76400006 -2.3261504e+38
0.37897906 -0.086023189 0.76200002 -2.3128579e+38
0.38040388 -0.086023189 0.76200002 -2.2862732e+38
0.38182867 -0.086023189 0.76200002 -2.2729807e+38
0.38275051 -0.08591029 0.76100004 -2.2862724e+38
0.38316381 -0.085684508 0.75900006 -2.2729799e+38
0.384583 -0.085684508 0.75900006 -2.2596876e+38
0.38498506 -0.085458733 0.75700003 -2.32615e+38
0.38537961 -0.085232943 0.75500005 -2.4597541e+38
0.38627905 -0.08512006 0.75400001 -2.9667908e+38
0.38666055 -0.084894277 0.75200003 -3.0740174e+38
0.38909873 -0.08512006 0.75400001 -2.9809717e+38
0.38947275 -0.084894277 0.75200003 -2.7548991e+38
0.39087886 -0.084894277 0.75200003 -3.0085482e+38
0.39228496 -0.084894277 0.75200003 nan
0.39369106 -0.084894277 0.75200003 nan
0.39509717 -0.084894277 0.75200003 nan
0.39650327 -0.084894277 0.75200003 nan
0.39685109 -0.084668487 0.75000006 nan
0.39825344 -0.084668487 0.75000006 nan
0.39965582 -0.084668487 0.75000006 -3.368789e+38
0.40105817 -0.084668487 0.75000006 -2.5821037e+38
0.40192392 -0.084555604 0.74900001 -2.1540874e+38
0.40332443 -0.084555604 0.74900001 -2.3527372e+38
0.15348707 -0.081380814 0.73300004 nan
0.15485765 -0.081380814 0.73300004 nan
0.15622823 -0.081380814 0.73300004 nan
0.15759879 -0.081380814 0.73300004 nan
0.15918624 -0.081491843 0.73400003 nan
0.1605587 -0.081491843 0.73400003 nan
0.16237238 -0.081713893 0.73600006 nan
0.16330358 -0.081491843 0.73400003 nan
0.16512474 -0.081713893 0.73600006 nan
0.16650094 -0.081713893 0.73600006 -2.5541561e+38
0.16787712 -0.081713893 0.73600006 -2.4192031e+38
0.16971323 -0.081935935 0.73800004 -2.5388873e+38
0.17109315 -0.081935935 0.73800004 -2.9648648e+38
0.17317419 -0.082269013 0.74100006 -3.3518526e+38
0.17573759 -0.082824133 0.74600005 -3.2327405e+38
0.17713249 -0.082824133 0.74600005 -3.2061038e+38
0.17876668 -0.082935162 0.74700004 -3.192805e+38
0.18016344 -0.082935162 0.74700004 -3.1660639e+38
0.18204629 -0.083157212 0.74900001 -3.1256706e+38
0.18369173 -0.083268233 0.75000006 -2.9788822e+38
0.18509409 -0.083268233 0.75000006 -3.0854818e+38
0.18749109 -0.083712332 0.75400001 -3.0988262e+38
0.18915145 -0.083823353 0.75500005 -3.1257191e+38
0.19106798 -0.084045403 0.75700003 -3.1390635e+38
0.19350052 -0.084489495 0.76100004 -3.1658069e+38
0.1951796 -0.084600523 0.76200002 -3.2858544e+38
0.3709574 -0.085377693 0.76900005 -2.5521204e+38
0.37239528 -0.085377693 0.76900005 -2.5521204e+38
0.37237477 -0.085044622 0.76600003 -2.5521206e+38
0.37283108 -0.084822573 0.76400006 -2.4723673e+38
0.37425962 -0.084822573 0.76400006 -2.4191972e+38
0.37470466 -0.084600523 0.76200002 -2.4059059e+38
0.37612945 -0.084600523 0.76200002 -2.4191984e+38
0.37755427 -0.084600523 0.76200002 -2.4059047e+38
0.37897906 -0.084600523 0.76200002 -2.3660273e+38
0.37990466 -0.084489495 0.76100004 -2.3128579e+38
0.38132757 -0.084489495 0.76100004 -2.3128579e+38
0.38174462 -0.084267445 0.75900006 -2.3128575e+38
0.38316381 -0.084267445 0.75900006 -2.299565e+38
0.3835696 -0.084045403 0.75700003 -2.2596878e+38
0.38396791 -0.083823353 0.75500005 -2.3128581e+38
0.38486919 -0.083712332 0.75400001 -2.9796144e+38
0.38525444 -0.083490282 0.75200003 nan
0.38563216 -0.083268233 0.75000006 nan
0.38806665 -0.083490282 0.75200003 nan
0.38843688 -0.083268233 0.75000006 nan
0.38983926 -0.083268233 0.75000006 nan
0.39124164 -0.083268233 0.75000006 nan
0.39264399 -0.083268233 0.75000006 -3.3945322e+38
0.39404637 -0.083268233 0.75000006 nan
0.39544871 -0.083268233 0.75000006 nan
0.39685109 -0.083268233 0.75000006 nan
0.39772245 -0.083157212 0.74900001 nan
0.39912295 -0.083157212 0.74900001 nan
0.40052342 -0.083157212 0.74900001 nan
0.40192392 -0.083157212 0.74900001 -2.6615898e+38
0.40224746 -0.082935162 0.74700004 -2.2201349e+38
0.15285887 -0.079684824 0.73000002 nan
0.15422383 -0.079684824 0.73000002 nan
0.15516254 -0.079466514 0.72800004 nan
0.15695377 -0.079684824 0.73000002 nan
0.15896937 -0.080012299 0.73300004 nan
0.16033995 -0.080012299 0.73300004 nan
0.16193114 -0.080121458 0.73400003 nan
0.16196868 -0.079466514 0.72800004 nan
0.16467604 -0.080121458 0.73400003 nan
0.16604848 -0.080121458 0.73400003 -2.9546443e+38
0.16742094 -0.080121458 0.73400003 -2.685573e+38
0.16879338 -0.080121458 0.73400003 -2.5255437e+38
0.17016582 -0.080121458 0.73400003 -2.8315737e+38
0.17200568 -0.080339774 0.73600006 -3.3386611e+38
0.17338187 -0.080339774 0.73600006 -3.1927066e+38
0.17852737 -0.081431344 0.74600005 -3.2058928e+38
0.17992225 -0.081431344 0.74600005 -3.2324776e+38
0.1815602 -0.081540503 0.74700004 -3.1659144e+38
0.18295695 -0.081540503 0.74700004 -3.0591591e+38
0.18484728 -0.08175882 0.74900001 -3.0455529e+38
0.18649645 -0.081867978 0.75000006 -3.0188639e+38
0.18839987 -0.082086287 0.75200003 -3.072032e+38
0.19106798 -0.08263208 0.75700003 -3.0587395e+38
0.37142673 -0.083723649 0.76700002 -2.591998e+38
0.37237477 -0.083614491 0.76600003 -2.591998e+38
0.37185505 -0.083177865 0.76200002 -2.5521727e+38
0.37327984 -0.083177865 0.76200002 -2.4856584e+38
0.37470466 -0.083177865 0.76200002 -2.4723667e+38
0.37563586 -0.083068706 0.76100004 -2.4590744e+38
0.37705877 -0.083068706 0.76100004 -2.4191972e+38
0.37748703 -0.082850389 0.75900006 -2.3926124e+38
0.37790781 -0.08263208 0.75700003 -2.3793197e+38
0.37932324 -0.08263208 0.75700003 -2.3660273e+38
0.38073871 -0.08263208 0.75700003 -2.352736e+38
0.38114449 -0.082413763 0.75500005 -2.3394439e+38
0.3825562 -0.082413763 0.75500005 -2.2463965e+38
0.38345936 -0.082304604 0.75400001 -2.126765e+38
0.38384834 -0.082086287 0.75200003 -2.833292e+38
0.38422981 -0.081867978 0.75000006 nan
0.38511801 -0.08175882 0.74900001 nan
0.38651848 -0.08175882 0.74900001 nan
0.38843688 -0.081867978 0.75000006 nan
0.38983926 -0.081867978 0.75000006 nan
0.39124164 -0.081867978 0.75000006 nan
0.39212048 -0.08175882 0.74900001 nan
0.39404637 -0.081867978 0.75000006 -3.1808783e+38
0.39492145 -0.08175882 0.74900001 -3.2875875e+38
0.39632195 -0.08175882 0.74900001 nan
0.39772245 -0.08175882 0.74900001 nan
0.39912295 -0.08175882 0.74900001 nan
0.39945397 -0.081540503 0.74700004 nan
0.40085071 -0.081540503 0.74700004 nan
0.40170899 -0.081431344 0.74600005 -2.5008978e+38
0.15244009 -0.078107327 0.72800004 nan
0.15380132 -0.078107327 0.72800004 nan
0.15452313 -0.077785455 0.72500002 nan
0.15630876 -0.078000039 0.72700006 nan
0.157885 -0.078107327 0.72800004 nan
0.1596837 -0.078321911 0.73000002 nan
0.16104868 -0.078321911 0.73000002 nan
0.16241364 -0.078321911 0.73000002 nan
0.16377862 -0.078321911 0.73000002 nan
0.16536981 -0.078429207 0.73100001 nan
0.16719285 -0.078643776 0.73300004 -3.0069873e+38
0.16810349 -0.078429207 0.73100001 -2.4865553e+38
0.16947033 -0.078429207 0.73100001 -2.8056684e+38
0.17083716 -0.078429207 0.73100001 -3.2994635e+38
0.172204 -0.078429207 0.73100001 -3.2195981e+38
0.17475806 -0.078965656 0.73600006 -3.0728098e+38
0.17992225 -0.080038555 0.74600005 -3.1923925e+38
0.18131714 -0.080038555 0.74600005 -3.1659667e+38
0.18271202 -0.080038555 0.74600005 -3.112537e+38
0.18435371 -0.080145851 0.74700004 -3.1123771e+38
0.18624778 -0.080360427 0.74900001 -3.0589476e+38
0.18789881 -0.080467716 0.75000006 -3.0589472e+38
0.37185505 -0.081755206 0.76200002 -2.6053414e+38
0.37327984 -0.081755206 0.76200002 -2.5521196e+38
0.37421292 -0.08164791 0.76100004 -2.5521208e+38
0.37464866 -0.081433326 0.75900006 -2.4989513e+38
0.37606785 -0.081433326 0.75900006 -2.4590748e+38
0.37649235 -0.081218749 0.75700003 -2.4324897e+38
0.37690935 -0.081004173 0.75500005 -2.3926118e+38
0.37832105 -0.081004173 0.75500005 -2.3793193e+38
0.37973279 -0.081004173 0.75500005 -2.3527362e+38
0.38063967 -0.080896884 0.75400001 -2.3660289e+38
0.38103613 -0.0806823 0.75200003 -2.2729823e+38
0.38244224 -0.0806823 0.75200003 -2.1134731e+38
0.38282743 -0.080467716 0.75000006 -2.4994196e+38
0.38371751 -0.080360427 0.74900001 nan
0.38408965 -0.080145851 0.74700004 nan
0.38548642 -0.080145851 0.74700004 -3.1680509e+38
0.38688317 -0.080145851 0.74700004 -2.6737929e+38
0.38931948 -0.080360427 0.74900001 -2.7937902e+38
0.39071998 -0.080360427 0.74900001 -2.9672585e+38
0.39107344 -0.080145851 0.74700004 -3.1806082e+38
0.39352095 -0.080360427 0.74900001 -3.0468619e+38
0.39386693 -0.080145851 0.74700004 -2.3138092e+38
0.3952637 -0.080145851 0.74700004 -1.7947241e+38
0.39666045 -0.080145851 0.74700004 -2.2354499e+38
0.39805719 -0.080145851 0.74700004 -3.2086091e+38
0.39891922 -0.080038555 0.74600005 nan
0.40031409 -0.080038555 0.74600005 nan
0.40063199 -0.079823978 0.74400002 -3.1805694e+38
0.15211119 -0.075904757 0.72000003 nan
0.15345746 -0.075904757 0.72000003 nan
0.15480372 -0.075904757 0.72000003 nan
0.15593313 -0.075799339 0.71900004 nan
0.15793376 -0.076115608 0.72200006 nan
0.15884253 -0.075904757 0.72000003 nan
0.15996633 -0.075799339 0.71900004 nan
0.16131073 -0.075799339 0.71900004 nan
0.16469114 -0.076748148 0.72800004 nan
0.16605237 -0.076748148 0.72800004 -3.3277678e+38
0.16741359 -0.076748148 0.72800004 -2.713873e+38
0.16877483 -0.076748148 0.72800004 -2.8597725e+38
0.17013605 -0.076748148 0.72800004 -3.1266606e+38
0.17149729 -0.076748148 0.72800004 -3.126763e+38
0.17333339 -0.076958992 0.73000002 -2.9532338e+38
0.17469835 -0.076958992 0.73000002 -3.098826e+38
0.17630452 -0.077064417 0.73100001 -3.1255149e+38
0.17840052 -0.077380687 0.73400003 -3.0856916e+38
0.18099757 -0.077907808 0.73900002 -3.1390171e+38
0.18287294 -0.078118645 0.74100006 -3.1392239e+38
0.18450715 -0.078224078 0.74200004 -3.0191245e+38
0.1863956 -0.078434922 0.74400002 -3.0456036e+38
0.18778676 -0.078434922 0.74400002 -3.0189146e+38
0.1891779 -0.078434922 0.74400002 -3.0320497e+38
0.37181026 -0.080016263 0.75900006 -2.5654131e+38
0.37322944 -0.080016263 0.75900006 -2.5654147e+38
0.37366143 -0.079805426 0.75700003 -2.5388297e+38
0.37507689 -0.079805426 0.75700003 -2.5388293e+38
0.37549764 -0.079594575 0.75500005 -2.4989519e+38
0.37641013 -0.079489157 0.75400001 -2.4857099e+38
0.37681782 -0.079278305 0.75200003 -2.459073e+38
0.37721798 -0.079067461 0.75000006 -2.4324882e+38
0.37862036 -0.079067461 0.75000006 -2.3926114e+38
0.3800227 -0.079067461 0.75000006 -2.2198134e+38
0.38091651 -0.078962035 0.74900001 -2.0735971e+38
0.38129616 -0.078751191 0.74700004 -2.1134729e+38
0.3821806 -0.078645766 0.74600005 -2.8735832e+38
0.3835755 -0.078645766 0.74600005 -3.3549744e+38
0.38393825 -0.078434922 0.74400002 nan
0.3853294 -0.078434922 0.74400002 -2.9679952e+38
0.38672054 -0.078434922 0.74400002 -2.1675941e+38
0.38915503 -0.078645766 0.74600005 -2.047016e+38
0.38950285 -0.078434922 0.74400002 -2.2999295e+38
0.3919448 -0.078645766 0.74600005 -2.5400284e+38
0.39228514 -0.078434922 0.74400002 -2.2470251e+38
0.39473456 -0.078645766 0.74600005 -1.887505e+38
0.39612946 -0.078645766 0.74600005 -1.8343346e+38
0.39645857 -0.078434922 0.74400002 -2.3404357e+38
0.39678022 -0.078224078 0.74200004 -2.9933774e+38
0.39816764 -0.078224078 0.74200004 -3.3400176e+38
0.40063199 -0.078434922 0.74400002 -3.0862116e+38
0.15153924 -0.073628508 0.71100003 nan
0.1552825 -0.074146293 0.71600002 nan
0.15884253 -0.074560516 0.72000003 nan
0.15996633 -0.07445696 0.71900004 nan
0.16131073 -0.07445696 0.71900004 nan
0.1633338 -0.074767627 0.72200006 nan
0.1653681 -0.075078294 0.72500002 -3.3412627e+38
0.16672371 -0.075078294 0.72500002 -2.9675672e+38
0.16807933 -0.075078294 0.72500002 -2.8600861e+38
0.16943495 -0.075078294 0.72500002 -2.8468457e+38
0.1712617 -0.075285405 0.72700006 -3.00625e+38
0.17262106 -0.075285405 0.72700006 -2.992958e+38
0.17421974 -0.075388961 0.72800004 -3.0457622e+38
0.17558096 -0.075388961 0.72800004 -2.9790921e+38
0.1769422 -0.075388961 0.72800004 -2.97857e+38
0.1790382 -0.075699635 0.73100001 -3.0319474e+38
0.18040504 -0.075699635 0.73100001 -3.0455541e+38
0.18425848 -0.076735191 0.74100006 -3.0455541e+38
0.18564402 -0.076735191 0.74100006 -3.0322596e+38
0.18702956 -0.076735191 0.74100006 -3.0055186e+38
0.37366143 -0.078392096 0.75700003 -2.6052915e+38
0.37408593 -0.078184985 0.75500005 -2.5787072e+38
0.3750003 -0.078081429 0.75400001 -2.5787072e+38
0.37541172 -0.077874318 0.75200003 -2.5921536e+38
0.37681782 -0.077874318 0.75200003 -2.578809e+38
0.37721798 -0.077667199 0.75000006 -2.5787056e+38
0.37811553 -0.077563651 0.74900001 -2.6457403e+38
0.37951601 -0.077563651 0.74900001 -2.3134431e+38
0.37989938 -0.077356532 0.74700004 -1.9540814e+38
0.3807857 -0.077252977 0.74600005 -1.7944641e+38
0.38115597 -0.077045865 0.74400002 -1.7678781e+38
0.38254711 -0.077045865 0.74400002 -2.4342094e+38
0.38393825 -0.077045865 0.74400002 nan
0.3853294 -0.077045865 0.74400002 nan
0.38672054 -0.077045865 0.74400002 -2.5149553e+38
0.38706839 -0.076838754 0.74200004 -1.900954e+38
0.38950285 -0.077045865 0.74400002 -1.9406729e+38
0.390894 -0.077045865 0.74400002 -2.0868882e+38
0.39228514 -0.077045865 0.74400002 -2.166642e+38
0.39367628 -0.077045865 0.74400002 -2.1001804e+38
0.39506742 -0.077045865 0.74400002 -2.0204266e+38
0.39539284 -0.076838754 0.74200004 -1.9672574e+38
0.39517599 -0.076528087 0.73900002 -2.0071343e+38
0.39655778 -0.076528087 0.73900002 -2.2463953e+38
0.15153924 -0.072301067 0.71100003 nan
0.15329869 -0.072504446 0.71300006 nan
0.15419813 -0.072301067 0.71100003 nan
0.15487133 -0.071995996 0.708 nan
0.1581807 -0.072911195 0.71700001 nan
0.15929888 -0.07280951 0.71600002 nan
0.16086201 -0.072911195 0.71700001 nan
0.16288134 -0.073216267 0.72000003 nan
0.1649119 -0.073521331 0.72300005 -3.3013315e+38
0.16626377 -0.073521331 0.72300005 -2.9811179e+38
0.16761565 -0.073521331 0.72300005 -2.9803916e+38
0.16896753 -0.073521331 0.72300005 -2.8336031e+38
0.17031941 -0.073521331 0.72300005 -2.9396331e+38
0.17167129 -0.073521331 0.72300005 -2.9529775e+38
0.17398041 -0.073928088 0.72700006 -3.0592111e+38
0.17485742 -0.073724709 0.72500002 -2.9658002e+38
0.17669913 -0.073928088 0.72700006 -2.9786217e+38
0.17879327 -0.074233159 0.73000002 -2.9919661e+38
0.1811454 -0.074639916 0.73400003 -2.9919152e+38
0.18376116 -0.075148366 0.73900002 -3.0053116e+38
0.18514296 -0.075148366 0.73900002 -3.0054673e+38
0.18374833 -0.074029781 0.72800004 -3.0054154e+38
0.18510957 -0.074029781 0.72800004 -3.0187586e+38
0.3726742 -0.076775394 0.75500005 -2.6451676e+38
0.37408593 -0.076775394 0.75500005 -2.5919997e+38
0.3750003 -0.076673701 0.75400001 -2.5919997e+38
0.37541172 -0.076470323 0.75200003 -2.5654656e+38
0.37581563 -0.076266944 0.75000006 -2.4990551e+38
0.37671503 -0.076165259 0.74900001 -2.6718099e+38
0.37811553 -0.076165259 0.74900001 nan
0.37850264 -0.07596188 0.74700004 nan
0.37989938 -0.07596188 0.74700004 -3.0342594e+38
0.37874395 -0.07545343 0.74200004 -2.5679192e+38
0.38013136 -0.07545343 0.74200004 -1.9412006e+38
0.38151878 -0.07545343 0.74200004 -1.9406745e+38
0.38290617 -0.07545343 0.74200004 -3.3414698e+38
0.38429359 -0.07545343 0.74200004 nan
0.385681 -0.07545343 0.74200004 -2.741506e+38
0.38706839 -0.07545343 0.74200004 -2.1006015e+38
0.38845581 -0.07545343 0.74200004 -2.100181e+38
0.3898432 -0.07545343 0.74200004 -2.2065199e+38
0.39123061 -0.07545343 0.74200004 -2.2596894e+38
0.39261803 -0.07545343 0.74200004 -2.2596884e+38
0.39400542 -0.07545343 0.74200004 -2.233103e+38
0.39485997 -0.075351737 0.74100006 -2.1267648e+38
0.39464125 -0.075046673 0.73800004 -2.0603034e+38
0.39602119 -0.075046673 0.73800004 -2.1533498e+38
0.14936472 -0.070574328 0.70700002 nan
0.15089984 -0.070674159 0.708 nan
0.15222368 -0.070674159 0.708 nan
0.1535475 -0.070674159 0.708 nan
0.15465258 -0.070574328 0.70700002 nan
0.15796009 -0.071472734 0.71600002 nan
0.15929888 -0.071472734 0.71600002 nan
0.16063766 -0.071472734 0.71600002 nan
0.16197646 -0.071472734 0.71600002 -3.3147282e+38
0.1646838 -0.072071664 0.72200006 -3.2479525e+38
0.16603382 -0.072071664 0.72200006 -3.0077532e+38
0.16692016 -0.071872018 0.72000003 -2.9939445e+38
0.16826643 -0.071872018 0.72000003 -2.7937265e+38
0.17008385 -0.072071664 0.72200006 -2.8862043e+38
0.17143385 -0.072071664 0.72200006 -2.8328267e+38
0.17278387 -0.072071664 0.72200006 -2.9526142e+38
0.17413387 -0.072071664 0.72200006 -3.1127471e+38
0.17548388 -0.072071664 0.72200006 -3.1258799e+38
0.1768339 -0.072071664 0.72200006 -3.0725023e+38
0.17941785 -0.072570778 0.72700006 -2.9650723e+38
0.18077721 -0.072570778 0.72700006 -2.8448686e+38
0.1831387 -0.07297007 0.73100001 -2.8714002e+38
0.18374833 -0.072670594 0.72800004 -2.9782597e+38
0.1838382 -0.072171479 0.72300005 -2.9654343e+38
0.37400562 -0.075066335 0.75200003 -2.6185844e+38
0.37441325 -0.07486669 0.75000006 -2.5919982e+38
0.37581563 -0.07486669 0.75000006 -2.3128569e+38
0.37671503 -0.074766867 0.74900001 -2.6052944e+38
0.37811553 -0.074766867 0.74900001 nan
0.37850264 -0.074567221 0.74700004 nan
0.37837368 -0.074267752 0.74400002 nan
0.37874395 -0.074068107 0.74200004 nan
0.37961906 -0.073968284 0.74100006 -2.2612552e+38
0.3810046 -0.073968284 0.74100006 -1.7412919e+38
0.38239014 -0.073968284 0.74100006 -2.5821986e+38
0.38377568 -0.073968284 0.74100006 -3.1417842e+38
0.38516122 -0.073968284 0.74100006 -2.7010562e+38
0.38654673 -0.073968284 0.74100006 -2.3666051e+38
0.38793227 -0.073968284 0.74100006 -2.2995671e+38
0.38826701 -0.073768646 0.73900002 -2.286275e+38
0.39070335 -0.073968284 0.74100006 -2.286275e+38
0.39208889 -0.073968284 0.74100006 -2.2729813e+38
0.39347443 -0.073968284 0.74100006 -2.259688e+38
0.39219558 -0.073469177 0.73600006 -2.2331032e+38
0.39357176 -0.073469177 0.73600006 -2.219811e+38
0.39494795 -0.073469177 0.73600006 -2.2331036e+38
0.1506867 -0.069254354 0.70700002 nan
0.15200865 -0.069254354 0.70700002 nan
0.15333062 -0.069254354 0.70700002 nan
0.15465258 -0.069254354 0.70700002 nan
0.15575393 -0.069156401 0.70600003 nan
0.15707402 -0.069156401 0.70600003 nan
0.15794541 -0.068960488 0.70400006 nan
0.15790442 -0.068372756 0.69800001 -3.2612464e+38
0.16399953 -0.070429817 0.71900004 -3.2343996e+38
0.16534393 -0.070429817 0.71900004 -3.0075966e+38
0.16668832 -0.070429817 0.71900004 -2.9675676e+38
0.16756532 -0.070233904 0.71700001 -2.7406608e+38
0.16937713 -0.070429817 0.71900004 -2.8729096e+38
0.17095897 -0.07052777 0.72000003 -2.8729098e+38
0.17230524 -0.07052777 0.72000003 -2.9127337e+38
0.1736515 -0.07052777 0.72000003 -2.886097e+38
0.17499778 -0.07052777 0.72000003 -3.205577e+38
0.17634404 -0.07052777 0.72000003 -3.338969e+38
0.1781839 -0.070723683 0.72200006 -3.2459836e+38
0.17978257 -0.070821635 0.72300005 -3.0325251e+38
0.18163551 -0.071017548 0.72500002 -2.751723e+38
0.18248633 -0.070821635 0.72300005 -2.725034e+38
0.1838382 -0.070821635 0.72300005 -2.8851588e+38
0.37671503 -0.073368475 0.74900001 -2.419195e+38
0.37710589 -0.073172562 0.74700004 nan
0.37799594 -0.073074602 0.74600005 nan
0.37837368 -0.072878703 0.74400002 nan
0.37823352 -0.07258483 0.74100006 nan
0.37961906 -0.07258483 0.74100006 -2.5423808e+38
0.37997624 -0.072388925 0.73900002 -1.7948858e+38
0.38135803 -0.072388925 0.73900002 -2.1151529e+38
0.38273981 -0.072388925 0.73900002 -2.5279399e+38
0.38360184 -0.072290964 0.73800004 -2.4474031e+38
0.38498175 -0.072290964 0.73800004 -2.392981e+38
0.38636169 -0.072290964 0.73800004 -2.3527372e+38
0.38564003 -0.071899146 0.73400003 -2.2995673e+38
0.38701248 -0.071899146 0.73400003 -2.2729825e+38
0.39103061 -0.072388925 0.73900002 -2.259689e+38
0.39188141 -0.072290964 0.73800004 -2.2331036e+38
0.39112982 -0.071899146 0.73400003 -2.2065187e+38
0.39250228 -0.071899146 0.73400003 -2.2065185e+38
0.39333811 -0.071801186 0.73300004 -2.2198112e+38
0.15311375 -0.067838289 0.70600003 nan
0.15399635 -0.067646116 0.70400006 nan
0.1553127 -0.067646116 0.70400006 nan
0.15662906 -0.067646116 0.70400006 nan
0.15794541 -0.067646116 0.70400006 nan
0.15790442 -0.067069583 0.69800001 -3.2212129e+38
0.15920955 -0.067069583 0.69800001 -3.1811246e+38
0.16465403 -0.068799175 0.71600002 -2.9409255e+38
0.16599283 -0.068799175 0.71600002 -2.9675676e+38
0.16733162 -0.068799175 0.71600002 -2.9141381e+38
0.16890597 -0.068895258 0.71700001 -2.8868252e+38
0.17024663 -0.068895258 0.71700001 -2.8201033e+38
0.1715873 -0.068895258 0.71700001 -2.8594593e+38
0.17292796 -0.068895258 0.71700001 -2.4593351e+38
0.17426862 -0.068895258 0.71700001 -2.7784051e+38
0.17560928 -0.068895258 0.71700001 nan
0.17694993 -0.068895258 0.71700001 nan
0.17829061 -0.068895258 0.71700001 nan
0.18113445 -0.069471784 0.72300005 nan
0.18223393 -0.069375701 0.72200006 -2.2467604e+38
0.18358395 -0.069375701 0.72200006 -2.5123462e+38
0.37660107 -0.071681812 0.74600005 nan
0.37799594 -0.071681812 0.74600005 nan
0.37735656 -0.071297467 0.74200004 nan
0.37823352 -0.071201377 0.74100006 nan
0.37859443 -0.071009204 0.73900002 nan
0.37997624 -0.071009204 0.73900002 -2.3155305e+38
0.38084197 -0.070913114 0.73800004 -1.7682568e+38
0.3811861 -0.070720941 0.73600006 -2.0071395e+38
0.38256228 -0.070720941 0.73600006 -2.2065203e+38
0.38289514 -0.070528761 0.73400003 -2.3527372e+38
0.38374406 -0.07043267 0.73300004 -2.3926147e+38
0.38406387 -0.070240498 0.73100001 -2.3394447e+38
0.38543069 -0.070240498 0.73100001 -2.3128598e+38
0.38679755 -0.070240498 0.73100001 -2.2862738e+38
0.38922638 -0.07043267 0.73300004 -2.2463957e+38
0.3895312 -0.070240498 0.73100001 -2.2065187e+38
0.39196754 -0.07043267 0.73300004 -2.1932262e+38
0.39226487 -0.070240498 0.73100001 -2.2198112e+38
0.1537776 -0.066237517 0.70300001 nan
0.15443024 -0.065954849 0.70000005 nan
0.15573911 -0.065954849 0.70000005 nan
0.15659928 -0.065766416 0.69800001 nan
0.15790442 -0.065766416 0.69800001 -3.1812838e+38
0.15920955 -0.065766416 0.69800001 -3.1678858e+38
0.16051468 -0.065766416 0.69800001 -2.9543753e+38
0.16552916 -0.067273952 0.71400005 -2.9408273e+38
0.1668642 -0.067273952 0.71400005 -2.9274829e+38
0.16819926 -0.067273952 0.71400005 -2.8738972e+38
0.16953431 -0.067273952 0.71400005 -2.7538494e+38
0.17134799 -0.067462392 0.71600002 -2.8465301e+38
0.17220441 -0.067273952 0.71400005 -2.472887e+38
0.1728103 -0.066991292 0.71100003 -2.658457e+38
0.17413975 -0.066991292 0.71100003 -3.3647737e+38
0.17546919 -0.066991292 0.71100003 nan
0.17679863 -0.066991292 0.71100003 nan
0.17862913 -0.067179732 0.71300006 nan
0.17996231 -0.067179732 0.71300006 -3.275485e+38
0.18129548 -0.067179732 0.71300006 -2.0484927e+38
0.37735656 -0.069912143 0.74200004 nan
0.37823352 -0.069817923 0.74100006 nan
0.37859443 -0.069629483 0.73900002 nan
0.37946206 -0.069535255 0.73800004 nan
0.37980992 -0.069346823 0.73600006 -2.0749692e+38
0.38015023 -0.069158375 0.73400003 -1.9008011e+38
0.3810029 -0.069064148 0.73300004 -2.1135263e+38
0.38237348 -0.069064148 0.73300004 -2.352738e+38
0.38269702 -0.068875715 0.73100001 -2.4059079e+38
0.38353845 -0.068781488 0.73000002 -2.3660295e+38
0.38490343 -0.068781488 0.73000002 -2.3394437e+38
0.38626841 -0.068781488 0.73000002 -2.286274e+38
0.38816437 -0.068875715 0.73100001 -2.2463963e+38
0.38899833 -0.068781488 0.73000002 -2.2198112e+38
0.39089805 -0.068875715 0.73100001 -2.2065185e+38
0.39172828 -0.068781488 0.73000002 -2.2596888e+38
0.15334012 -0.0647403 0.70100003 nan
0.15443024 -0.064647943 0.70000005 nan
0.15529415 -0.064463243 0.69800001 nan
0.15659928 -0.064463243 0.69800001 nan
0.15745196 -0.064278528 0.69600004 -3.1679903e+38
0.15829718 -0.064093821 0.69400001 -3.1677842e+38
0.15959483 -0.064093821 0.69400001 -2.9542735e+38
0.15926965 -0.063447341 0.68700004 -2.9806009e+38
0.16819926 -0.065940909 0.71400005 -2.8739491e+38
0.16953431 -0.065940909 0.71400005 -2.8072792e+38
0.17015143 -0.065663844 0.71100003 -2.8602388e+38
0.17148086 -0.065663844 0.71100003 -2.7668801e+38
0.1728103 -0.065663844 0.71100003 -2.7120989e+38
0.17413975 -0.065663844 0.71100003 -2.4991592e+38
0.17546919 -0.065663844 0.71100003 -3.3004354e+38
0.17679863 -0.065663844 0.71100003 nan
0.17862913 -0.065848552 0.71300006 nan
0.17996231 -0.065848552 0.71300006 nan
0.18129548 -0.065848552 0.71300006 nan
0.37721264 -0.068249762 0.73900002 nan
0.37808213 -0.068157405 0.73800004 nan
0.3784337 -0.067972705 0.73600006 nan
0.3787778 -0.06778799 0.73400003 -2.4747209e+38
0.37859651 -0.067510933 0.73100001 -1.9140924e+38
0.37996334 -0.067510933 0.73100001 -2.1268723e+38
0.38080853 -0.067418568 0.73000002 -2.3793751e+38
0.38217351 -0.067418568 0.73000002 -2.4192e+38
0.38248765 -0.06723386 0.72800004 -2.3660285e+38
0.38384888 -0.06723386 0.72800004 -2.3394423e+38
0.38521013 -0.06723386 0.72800004 -2.2995656e+38
0.38657135 -0.06723386 0.72800004 -2.2596888e+38
0.38899833 -0.067418568 0.73000002 -2.2596884e+38
0.39036331 -0.067418568 0.73000002 -2.2596882e+38
0.39065504 -0.06723386 0.72800004 -2.326151e+38
0.15181249 -0.063341036 0.70000005 nan
0.15312137 -0.063341036 0.70000005 nan
0.15354778 -0.062979095 0.69600004 nan
0.15484917 -0.062979095 0.69600004 -3.3547608e+38
0.15615056 -0.062979095 0.69600004 -3.3546576e+38
0.15699953 -0.062798113 0.69400001 -3.1944209e+38
0.15829718 -0.062798113 0.69400001 -3.194213e+38
0.15959483 -0.062798113 0.69400001 -2.994099e+38
0.15926965 -0.062164702 0.68700004 -2.9541717e+38
0.16819926 -0.064607859 0.71400005 -2.9139817e+38
0.16953431 -0.064607859 0.71400005 -2.8740004e+38
0.17086937 -0.064607859 0.71400005 -2.8207262e+38
0.17196321 -0.064517379 0.71300006 -2.7807451e+38
0.1728103 -0.064336397 0.71100003 -2.7934661e+38
0.17413975 -0.064336397 0.71100003 -2.3532045e+38
0.17522238 -0.064245909 0.71000004 -2.2336223e+38
0.17679863 -0.064336397 0.71100003 -2.3802537e+38
0.17812806 -0.064336397 0.71100003 nan
0.17945752 -0.064336397 0.71100003 nan
0.18078695 -0.064336397 0.71100003 nan
0.18186024 -0.064245909 0.71000004 nan
0.37705752 -0.066598579 0.73600006 nan
0.37740535 -0.066417605 0.73400003 nan
0.37826174 -0.066327117 0.73300004 -2.5011959e+38
0.37859651 -0.066146143 0.73100001 -2.020428e+38
0.37944356 -0.066055655 0.73000002 -2.2331552e+38
0.37976521 -0.065874681 0.72800004 -2.3793222e+38
0.3806029 -0.065784194 0.72700006 -2.4059084e+38
0.3809115 -0.065603219 0.72500002 -2.3527366e+38
0.38226712 -0.065603219 0.72500002 -2.3261506e+38
0.38362274 -0.065603219 0.72500002 -2.2995656e+38
0.38497835 -0.065603219 0.72500002 -2.286273e+38
0.38526824 -0.065422244 0.72300005 -2.2995659e+38
0.38875908 -0.065784194 0.72700006 -2.3128585e+38
0.39011842 -0.065784194 0.72700006 -2.3660285e+38
0.15268388 -0.061856896 0.69800001 nan
0.15310656 -0.061502412 0.69400001 nan
0.15440421 -0.061502412 0.69400001 -3.3147303e+38
0.15570188 -0.061502412 0.69400001 -3.3278658e+38
0.15677328 -0.061413795 0.69300002 -3.167785e+38
0.1576129 -0.061236549 0.69100004 -3.15444e+38
0.15821505 -0.06097069 0.68800002 -2.9676183e+38
0.15926965 -0.060882069 0.68700004 -2.9675165e+38
0.16055422 -0.060882069 0.68700004 -2.9675165e+38
0.16183877 -0.060882069 0.68700004 -2.927533e+38
0.17015143 -0.063008957 0.71100003 -2.8474672e+38
0.17123967 -0.062920332 0.71000004 -2.7807971e+38
0.17256725 -0.062920332 0.71000004 -2.8473079e+38
0.17389482 -0.062920332 0.71000004 -2.7538971e+38
0.17472881 -0.062743098 0.708 -2.5664035e+38
0.17654996 -0.062920332 0.71000004 -2.1001802e+38
0.17737648 -0.062743098 0.708 -2.5257963e+38
0.1792051 -0.062920332 0.71000004 -2.7657349e+38
0.18002415 -0.062743098 0.708 -3.1515741e+38
0.18134797 -0.062743098 0.708 nan
0.18215577 -0.062565856 0.70600003 nan
0.37740535 -0.065047219 0.73400003 nan
0.37722966 -0.06478136 0.73100001 -2.5268396e+38
0.37807861 -0.064692736 0.73000002 -2.2198116e+38
0.37840396 -0.064515494 0.72800004 -2.3527336e+38
0.37924355 -0.064426877 0.72700006 -2.4059061e+38
0.37955588 -0.064249635 0.72500002 -2.4191996e+38
0.3798607 -0.064072393 0.72300005 -2.3660289e+38
0.3806853 -0.063983776 0.72200006 -2.3394431e+38
0.38256446 -0.064072393 0.72300005 -2.3128575e+38
0.38338533 -0.063983776 0.72200006 -2.2995648e+38
0.38366958 -0.063806534 0.72000003 -2.3261512e+38
0.38501585 -0.063806534 0.72000003 -2.3394447e+38
0.387972 -0.064072393 0.72300005 -2.3660299e+38
0.15159015 -0.060119953 0.69300002 nan
0.15288594 -0.060119953 0.69300002 nan
0.15418172 -0.060119953 0.69300002 -3.3280751e+38
0.15547751 -0.060119953 0.69300002 -3.3279173e+38
0.15632086 -0.059946448 0.69100004 -3.1944213e+38
0.1573848 -0.059859693 0.69000006 -3.1677846e+38
0.15821505 -0.059686188 0.68800002 -3.0075996e+38
0.15926965 -0.059599433 0.68700004 -2.9809644e+38
0.16055422 -0.059599433 0.68700004 -2.9676719e+38
0.16183877 -0.059599433 0.68700004 -2.9010539e+38
0.16312334 -0.059599433 0.68700004 -2.8610209e+38
0.17123967 -0.061594754 0.71000004 -2.8207781e+38
0.17208114 -0.061421253 0.708 -2.8073291e+38
0.17340498 -0.061421253 0.708 -2.7805885e+38
0.17448202 -0.061334495 0.70700002 -2.7401927e+38
0.17605264 -0.061421253 0.708 -2.4601157e+38
0.17737648 -0.061421253 0.708 -2.4457848e+38
0.17870031 -0.061421253 0.708 -2.2463975e+38
0.17976986 -0.061334495 0.70700002 -2.1932262e+38
0.18083568 -0.061247747 0.70600003 -3.2332033e+38
0.18215577 -0.061247747 0.70600003 nan
0.18269622 -0.060987484 0.70300001 nan
0.18427245 -0.061074238 0.70400006 nan
0.37586284 -0.063416578 0.73100001 -2.8991327e+38
0.37722966 -0.063416578 0.73100001 -2.5259064e+38
0.37704274 -0.063156314 0.72800004 -2.4191978e+38
0.37788418 -0.06306956 0.72700006 -2.4590734e+38
0.37715694 -0.062722549 0.72300005 -2.4723669e+38
0.37798527 -0.062635794 0.72200006 -2.4590746e+38
0.37933528 -0.062635794 0.72200006 -2.3926126e+38
0.37963077 -0.062462285 0.72000003 -2.3527354e+38
0.38203532 -0.062635794 0.72200006 -2.3261504e+38
0.38232332 -0.062462285 0.72000003 -2.3394429e+38
0.38313672 -0.062375538 0.71900004 -2.3527378e+38
0.38448113 -0.062375538 0.71900004 -2.4060132e+38
0.38582551 -0.062375538 0.71900004 -2.4592345e+38
0.15288594 -0.058826115 0.69300002 nan
0.15418172 -0.058826115 0.69300002 -3.3280755e+38
0.15502881 -0.058656342 0.69100004 -3.3413126e+38
0.15632086 -0.058656342 0.69100004 -3.1944722e+38
0.1573848 -0.058571458 0.69000006 -3.1410956e+38
0.15821505 -0.058401685 0.68800002 -3.0075996e+38
0.15926965 -0.058316801 0.68700004 -2.9675686e+38
0.16055422 -0.058316801 0.68700004 -2.9675165e+38
0.16183877 -0.058316801 0.68700004 -2.9275863e+38
0.16312334 -0.058316801 0.68700004 -2.887501e+38
0.16440791 -0.058316801 0.68700004 -2.874103e+38
0.16979258 -0.059759863 0.70400006 -2.8207256e+38
0.17110893 -0.059759863 0.70400006 -2.7940362e+38
0.17316005 -0.06001452 0.70700002 -2.7406066e+38
0.17423522 -0.059929635 0.70600003 -2.7803257e+38
0.17580397 -0.06001452 0.70700002 -2.6869672e+38
0.17712593 -0.06001452 0.70700002 -2.5795939e+38
0.17819551 -0.059929635 0.70600003 -2.4996315e+38
0.17900705 -0.059759863 0.70400006 -2.4324913e+38
0.18083568 -0.059929635 0.70600003 -2.3532029e+38
0.18163975 -0.059759863 0.70400006 -2.7257528e+38
0.18269622 -0.059674975 0.70300001 -2.8187992e+38
0.18401071 -0.059674975 0.70300001 -3.1118648e+38
0.18479794 -0.059505206 0.70100003 nan
0.37704274 -0.061797127 0.72800004 -2.5122456e+38
0.37684464 -0.06154247 0.72500002 -2.5521752e+38
0.37663528 -0.061287813 0.72200006 -2.5256411e+38
0.37693825 -0.06111804 0.72000003 -2.4724186e+38
0.37828451 -0.06111804 0.72000003 -2.392612e+38
0.37910351 -0.061033156 0.71900004 -2.3660268e+38
0.37938964 -0.060863383 0.71700001 -2.352736e+38
0.38179231 -0.061033156 0.71900004 -2.3660295e+38
0.38207096 -0.060863383 0.71700001 -2.3926682e+38
0.38341162 -0.060863383 0.71700001 -2.4593399e+38
0.38421565 -0.060778495 0.71600002 -2.4860279e+38
0.15632086 -0.057366241 0.69100004 -3.194472e+38
0.15692861 -0.057117183 0.68800002 -3.114511e+38
0.15798508 -0.057034165 0.68700004 -2.9676705e+38
0.15926965 -0.057034165 0.68700004 -2.9541719e+38
0.16032051 -0.056951143 0.68600005 -2.9008462e+38
0.16160321 -0.056951143 0.68600005 -2.9141373e+38
0.16241102 -0.056785103 0.68400002 -2.9141373e+38
0.16368997 -0.056785103 0.68400002 -2.847467e+38
0.16496892 -0.056785103 0.68400002 -2.8341225e+38
0.16965061 -0.057947371 0.69800001 -2.7939851e+38
0.17242528 -0.058445487 0.70400006 -2.7272633e+38
0.17374164 -0.058445487 0.70400006 -2.7271572e+38
0.17505799 -0.058445487 0.70400006 -2.6738317e+38
0.17637435 -0.058445487 0.70400006 -2.6600737e+38
0.1776907 -0.058445487 0.70400006 -2.5799554e+38
0.17875278 -0.058362469 0.70300001 -2.6194168e+38
0.18032339 -0.058445487 0.70400006 -2.3261514e+38
0.18138175 -0.058362469 0.70300001 -2.3128567e+38
0.18217646 -0.058196433 0.70100003 -2.3128567e+38
0.18348721 -0.058196433 0.70100003 -2.7118876e+38
0.18453434 -0.058113411 0.70000005 nan
0.37580508 -0.060022853 0.72300005 -2.5655198e+38
0.37559196 -0.059773792 0.72000003 -2.5123484e+38
0.37641472 -0.059690777 0.71900004 -2.4325412e+38
0.3767083 -0.059524737 0.71700001 -2.3793189e+38
0.37804899 -0.059524737 0.71700001 -2.3660262e+38
0.3788605 -0.059441715 0.71600002 -2.3527368e+38
0.3807303 -0.059524737 0.71700001 -2.4992673e+38
0.38153809 -0.059441715 0.71600002 -2.512821e+38
0.38180739 -0.059275679 0.71400005 -2.4196184e+38
0.38260585 -0.059192661 0.71300006 -2.4729959e+38
0.15692861 -0.05583268 0.68800002 -3.1278033e+38
0.15798508 -0.055751529 0.68700004 -2.9676183e+38
0.15903781 -0.055670373 0.68600005 -2.9941522e+38
0.1598531 -0.05550807 0.68400002 -2.9274821e+38
0.16113205 -0.05550807 0.68400002 -2.9141365e+38
0.16241102 -0.05550807 0.68400002 -2.8873953e+38
0.16345066 -0.055426918 0.68300003 -2.8475181e+38
0.16496892 -0.05550807 0.68400002 -2.7941926e+38
0.16624789 -0.05550807 0.68400002 -2.7939853e+38
0.17316005 -0.057374567 0.70700002 -2.7406079e+38
0.17349485 -0.05704996 0.70300001 -2.7138142e+38
