# .PCD v0.7 - Point Cloud Data file format
VERSION 0.7
FIELDS x y z rgb
SIZE 4 4 4 4
TYPE F F F F
COUNT 1 1 1 1
WIDTH 1221
HEIGHT 1
VIEWPOINT 0 0 0 1 0 0 0
POINTS 1221
DATA ascii
0.12149625 0.017265402 0.97000003 nan
0.12330997 0.017265402 0.97000003 nan
0.12473672 0.017212003 0.96700007 nan
0.12615225 0.017158607 0.96400005 nan
0.12795475 0.017158607 0.96400005 nan
0.13016106 0.017212003 0.96700007 nan
0.13155976 0.017158607 0.96400005 nan
0.13308558 0.017123008 0.96200007 nan
0.13488434 0.017123008 0.96200007 nan
0.13668311 0.017123008 0.96200007 nan
0.13805002 0.01706961 0.95900005 nan
0.13984318 0.01706961 0.95900005 nan
0.14119326 0.01701621 0.95600003 nan
0.1429808 0.01701621 0.95600003 nan
0.14476836 0.01701621 0.95600003 nan
0.14624929 0.016980611 0.95400006 nan
0.1480331 0.016980611 0.95400006 nan
0.14934579 0.016927214 0.95100003 nan
0.15112399 0.016927214 0.95100003 nan
0.15290219 0.016927214 0.95100003 nan
0.15468037 0.016927214 0.95100003 nan
0.15645857 0.016927214 0.95100003 nan
0.15823677 0.016927214 0.95100003 nan
0.1229286 0.019017402 0.96700007 nan
0.12473672 0.019017402 0.96700007 nan
0.12589051 0.018919071 0.96200007 nan
0.12768927 0.018919071 0.96200007 nan
0.12975726 0.018958405 0.96400005 nan
0.13128681 0.018919071 0.96200007 nan
0.13308558 0.018919071 0.96200007 nan
0.13488434 0.018919071 0.96200007 nan
0.13625686 0.018860072 0.95900005 nan
0.13805002 0.018860072 0.95900005 nan
0.13940571 0.018801073 0.95600003 nan
0.14119326 0.018801073 0.95600003 nan
0.1429808 0.018801073 0.95600003 nan
0.14446548 0.018761739 0.95400006 nan
0.14578938 0.01870274 0.95100003 nan
0.14756759 0.01870274 0.95100003 nan
0.14934579 0.01870274 0.95100003 nan
0.15064725 0.018643742 0.94800007 nan
0.15241984 0.018643742 0.94800007 nan
0.15419243 0.018643742 0.94800007 nan
0.15596502 0.018643742 0.94800007 nan
0.15773761 0.018643742 0.94800007 nan
0.12112048 0.020822801 0.96700007 nan
0.1229286 0.020822801 0.96700007 nan
0.12409174 0.020715134 0.96200007 nan
0.12549792 0.020650536 0.95900005 nan
0.12729108 0.020650536 0.95900005 nan
0.12948804 0.020715134 0.96200007 nan
0.13087739 0.020650536 0.95900005 nan
0.13308558 0.020715134 0.96200007 nan
0.1344637 0.020650536 0.95900005 nan
0.13625686 0.020650536 0.95900005 nan
0.13761817 0.020585934 0.95600003 nan
0.13940571 0.020585934 0.95600003 nan
0.14089787 0.020542866 0.95400006 nan
0.14268167 0.020542866 0.95400006 nan
0.14401118 0.020478267 0.95100003 nan
0.14532949 0.020413667 0.94800007 nan
0.14710207 0.020413667 0.94800007 nan
0.14887467 0.020413667 0.94800007 nan
0.15064725 0.020413667 0.94800007 nan
0.15209827 0.020370601 0.94600004 nan
0.15386713 0.020370601 0.94600004 nan
0.15514241 0.020306 0.94300002 nan
0.12254723 0.022558 0.96400005 nan
0.12370476 0.022440998 0.95900005 nan
0.12549792 0.022440998 0.95900005 nan
0.12689288 0.022370795 0.95600003 nan
0.12908423 0.022440998 0.95900005 nan
0.13087739 0.022440998 0.95900005 nan
0.13267055 0.022440998 0.95900005 nan
0.1344637 0.022440998 0.95900005 nan
0.13583061 0.022370795 0.95600003 nan
0.13733025 0.022323994 0.95400006 nan
0.13911407 0.022323994 0.95400006 nan
0.1404548 0.022253793 0.95100003 nan
0.142233 0.022253793 0.95100003 nan
0.14401118 0.022253793 0.95100003 nan
0.14532949 0.022183593 0.94800007 nan
0.14710207 0.022183593 0.94800007 nan
0.14856058 0.022136793 0.94600004 nan
0.15032943 0.022136793 0.94600004 nan
0.15161593 0.022066591 0.94300002 nan
0.15337917 0.022066591 0.94300002 nan
0.15514241 0.022066591 0.94300002 nan
0.12229298 0.024307262 0.96200007 nan
0.12370476 0.02423146 0.95900005 nan
0.12510534 0.024155656 0.95600003 nan
0.12689288 0.024155656 0.95600003 nan
0.12868042 0.024155656 0.95600003 nan
0.13087739 0.02423146 0.95900005 nan
0.13225552 0.024155656 0.95600003 nan
0.13404307 0.024155656 0.95600003 nan
0.13554645 0.024105122 0.95400006 nan
0.1368984 0.02402932 0.95100003 nan
0.1386766 0.02402932 0.95100003 nan
0.1404548 0.02402932 0.95100003 nan
0.14178431 0.023953518 0.94800007 nan
0.14355689 0.023953518 0.94800007 nan
0.14502288 0.023902982 0.94600004 nan
0.14679173 0.023902982 0.94600004 nan
0.14856058 0.023902982 0.94600004 nan
0.14985269 0.023827182 0.94300002 nan
0.15161593 0.023827182 0.94300002 nan
0.15289122 0.023751378 0.94000006 nan
0.15464886 0.023751378 0.94000006 nan
0.12229298 0.026103325 0.96200007 nan
0.12370476 0.026021922 0.95900005 nan
0.12510534 0.025940519 0.95600003 nan
0.12689288 0.025940519 0.95600003 nan
0.12868042 0.025940519 0.95600003 nan
0.13019502 0.025886249 0.95400006 nan
0.13197882 0.025886249 0.95400006 nan
0.133342 0.025804846 0.95100003 nan
0.1351202 0.025804846 0.95100003 nan
0.1368984 0.025804846 0.95100003 nan
0.1386766 0.025804846 0.95100003 nan
0.14001173 0.025723444 0.94800007 nan
0.14178431 0.025723444 0.94800007 nan
0.14325403 0.025669174 0.94600004 nan
0.14502288 0.025669174 0.94600004 nan
0.14679173 0.025669174 0.94600004 nan
0.14808945 0.025587771 0.94300002 nan
0.14937596 0.025506368 0.94000006 nan
0.1511336 0.025506368 0.94000006 nan
0.15289122 0.025506368 0.94000006 nan
0.15464886 0.025506368 0.94000006 nan
0.15640648 0.025506368 0.94000006 nan
0.12191161 0.027812386 0.95900005 nan
0.12331779 0.02772538 0.95600003 nan
0.1248436 0.027667377 0.95400006 nan
0.12662742 0.027667377 0.95400006 nan
0.12841122 0.027667377 0.95400006 nan
0.12978561 0.027580373 0.95100003 nan
0.1315638 0.027580373 0.95100003 nan
0.13292137 0.027493369 0.94800007 nan
0.13469395 0.027493369 0.94800007 nan
0.13646655 0.027493369 0.94800007 nan
0.13823913 0.027493369 0.94800007 nan
0.14001173 0.027493369 0.94800007 nan
0.14148518 0.027435366 0.94600004 nan
0.14325403 0.027435366 0.94600004 nan
0.14456297 0.027348362 0.94300002 nan
0.14632621 0.027348362 0.94300002 nan
0.14761834 0.027261356 0.94000006 nan
0.14937596 0.027261356 0.94000006 nan
0.1511336 0.027261356 0.94000006 nan
0.15256593 0.027203353 0.93800002 nan
0.15431981 0.027203353 0.93800002 nan
0.12011845 0.029602848 0.95900005 nan
0.12153023 0.029510241 0.95600003 nan
0.12331779 0.029510241 0.95600003 nan
0.1248436 0.029448504 0.95400006 nan
0.12622921 0.0293559 0.95100003 nan
0.12800741 0.0293559 0.95100003 nan
0.12978561 0.0293559 0.95100003 nan
0.13114877 0.029263295 0.94800007 nan
0.13292137 0.029263295 0.94800007 nan
0.13440979 0.029201558 0.94600004 nan
0.13617863 0.029201558 0.94600004 nan
0.13794748 0.029201558 0.94600004 nan
0.13971633 0.029201558 0.94600004 nan
0.1410365 0.029108953 0.94300002 nan
0.14279974 0.029108953 0.94300002 nan
0.14410308 0.029016346 0.94000006 nan
0.1458607 0.029016346 0.94000006 nan
0.14761834 0.029016346 0.94000006 nan
0.14905813 0.028954608 0.93800002 nan
0.15081203 0.028954608 0.93800002 nan
0.15256593 0.028954608 0.93800002 nan
0.15431981 0.028954608 0.93800002 nan
0.15557453 0.028862005 0.93500006 nan
0.12127598 0.031229634 0.95400006 nan
0.12267281 0.031131426 0.95100003 nan
0.12405843 0.031033218 0.94800007 nan
0.12583101 0.031033218 0.94800007 nan
0.12760361 0.031033218 0.94800007 nan
0.12937619 0.031033218 0.94800007 nan
0.13114877 0.031033218 0.94800007 nan
0.13264094 0.03096775 0.94600004 nan
0.13440979 0.03096775 0.94600004 nan
0.13617863 0.03096775 0.94600004 nan
0.13794748 0.03096775 0.94600004 nan
0.13927326 0.030869542 0.94300002 nan
0.14058782 0.030771337 0.94000006 nan
0.14234544 0.030771337 0.94000006 nan
0.14410308 0.030771337 0.94000006 nan
0.14555036 0.030705864 0.93800002 nan
0.14730425 0.030705864 0.93800002 nan
0.14905813 0.030705864 0.93800002 nan
0.15032969 0.030607661 0.93500006 nan
0.15207797 0.030607661 0.93500006 nan
0.15382625 0.030607661 0.93500006 nan
0.15557453 0.030607661 0.93500006 nan
0.11949218 0.033010762 0.95400006 nan
0.12089462 0.032906953 0.95100003 nan
0.12228584 0.032803144 0.94800007 nan
0.12379669 0.03273394 0.94600004 nan
0.12556554 0.03273394 0.94600004 nan
0.12760361 0.032803144 0.94800007 nan
0.12937619 0.032803144 0.94800007 nan
0.13087209 0.03273394 0.94600004 nan
0.13264094 0.03273394 0.94600004 nan
0.13398354 0.032630131 0.94300002 nan
0.13574678 0.032630131 0.94300002 nan
0.13751002 0.032630131 0.94300002 nan
0.13883018 0.032526325 0.94000006 nan
0.14058782 0.032526325 0.94000006 nan
0.14204258 0.032457121 0.93800002 nan
0.14379647 0.032457121 0.93800002 nan
0.14555036 0.032457121 0.93800002 nan
0.14730425 0.032457121 0.93800002 nan
0.14858142 0.032353316 0.93500006 nan
0.15032969 0.032353316 0.93500006 nan
0.15175268 0.032284107 0.93300003 nan
0.15349722 0.032284107 0.93300003 nan
0.1547426 0.032180298 0.93000007 nan
0.11911642 0.034682479 0.95100003 nan
0.12051325 0.034573071 0.94800007 nan
0.12202785 0.034500133 0.94600004 nan
0.12379669 0.034500133 0.94600004 nan
0.12556554 0.034500133 0.94600004 nan
0.12733439 0.034500133 0.94600004 nan
0.12869382 0.034390721 0.94300002 nan
0.13045706 0.034390721 0.94300002 nan
0.1322203 0.034390721 0.94300002 nan
0.13355729 0.034281317 0.94000006 nan
0.13531493 0.034281317 0.94000006 nan
0.13707255 0.034281317 0.94000006 nan
0.13883018 0.034281317 0.94000006 nan
0.14028868 0.034208376 0.93800002 nan
0.14204258 0.034208376 0.93800002 nan
0.14333656 0.034098968 0.93500006 nan
0.14508484 0.034098968 0.93500006 nan
0.14683312 0.034098968 0.93500006 nan
0.14858142 0.034098968 0.93500006 nan
0.15000814 0.034026027 0.93300003 nan
0.15126473 0.033916619 0.93000007 nan
0.15300366 0.033916619 0.93000007 nan
0.1547426 0.033916619 0.93000007 nan
0.11849015 0.036266323 0.94600004 nan
0.120259 0.036266323 0.94600004 nan
0.12164086 0.036151312 0.94300002 nan
0.1234041 0.036151312 0.94300002 nan
0.12476914 0.036036305 0.94000006 nan
0.12693058 0.036151312 0.94300002 nan
0.12869382 0.036151312 0.94300002 nan
0.13004203 0.036036305 0.94000006 nan
0.13179967 0.036036305 0.94000006 nan
0.13355729 0.036036305 0.94000006 nan
0.13531493 0.036036305 0.94000006 nan
0.1367809 0.035959631 0.93800002 nan
0.1385348 0.035959631 0.93800002 nan
0.13984001 0.035844624 0.93500006 nan
0.14158829 0.035844624 0.93500006 nan
0.14333656 0.035844624 0.93500006 nan
0.14508484 0.035844624 0.93500006 nan
0.14651905 0.03576795 0.93300003 nan
0.1482636 0.03576795 0.93300003 nan
0.14952579 0.035652939 0.93000007 nan
0.15126473 0.035652939 0.93000007 nan
0.15267462 0.035576265 0.92800003 nan
0.11696807 0.03811292 0.94800007 nan
0.11849015 0.038032517 0.94600004 nan
0.11987762 0.037911903 0.94300002 nan
0.12125389 0.037791297 0.94000006 nan
0.12301151 0.037791297 0.94000006 nan
0.12450367 0.037710886 0.93800002 nan
0.12693058 0.037911903 0.94300002 nan
0.12828441 0.037791297 0.94000006 nan
0.13004203 0.037791297 0.94000006 nan
0.13151924 0.037710886 0.93800002 nan
0.13327312 0.037710886 0.93800002 nan
0.13502702 0.037710886 0.93800002 nan
0.13634345 0.037590276 0.93500006 nan
0.13809173 0.037590276 0.93500006 nan
0.13984001 0.037590276 0.93500006 nan
0.14128543 0.03750987 0.93300003 nan
0.14302997 0.03750987 0.93300003 nan
0.14477451 0.03750987 0.93300003 nan
0.14651905 0.03750987 0.93300003 nan
0.14778687 0.037389256 0.93000007 nan
0.14952579 0.037389256 0.93000007 nan
0.15093942 0.037308853 0.92800003 nan
0.1167213 0.039798707 0.94600004 nan
0.11773863 0.039546285 0.94000006 nan
0.11949626 0.039546285 0.94000006 nan
0.12125389 0.039546285 0.94000006 nan
0.12274978 0.039462142 0.93800002 nan
0.12450367 0.039462142 0.93800002 nan
0.12652677 0.039546285 0.94000006 nan
0.12828441 0.039546285 0.94000006 nan
0.13004203 0.039546285 0.94000006 nan
0.13151924 0.039462142 0.93800002 nan
0.13327312 0.039462142 0.93800002 nan
0.13502702 0.039462142 0.93800002 nan
0.13634345 0.039335933 0.93500006 nan
0.13779636 0.039251789 0.93300003 nan
0.1395409 0.039251789 0.93300003 nan
0.14083114 0.039125577 0.93000007 nan
0.14257008 0.039125577 0.93000007 nan
0.144309 0.039125577 0.93000007 nan
0.14604793 0.039125577 0.93000007 nan
0.14778687 0.039125577 0.93000007 nan
0.14920424 0.039041437 0.92800003 nan
0.15093942 0.039041437 0.92800003 nan
0.15267462 0.039041437 0.92800003 nan
0.11635114 0.041433085 0.94300002 nan
0.11773863 0.041301273 0.94000006 nan
0.11949626 0.041301273 0.94000006 nan
0.12125389 0.041301273 0.94000006 nan
0.12274978 0.041213397 0.93800002 nan
0.12450367 0.041213397 0.93800002 nan
0.12652677 0.041301273 0.94000006 nan
0.12801145 0.041213397 0.93800002 nan
0.12976535 0.041213397 0.93800002 nan
0.13151924 0.041213397 0.93800002 nan
0.13327312 0.041213397 0.93800002 nan
0.13459516 0.041081589 0.93500006 nan
0.1360518 0.040993709 0.93300003 nan
0.13779636 0.040993709 0.93300003 nan
0.13909221 0.040861897 0.93000007 nan
0.14083114 0.040861897 0.93000007 nan
0.14257008 0.040861897 0.93000007 nan
0.144309 0.040861897 0.93000007 nan
0.14604793 0.040861897 0.93000007 nan
0.14778687 0.040861897 0.93000007 nan
0.14920424 0.040774021 0.92800003 nan
0.15093942 0.040774021 0.92800003 -3.3230716e+38
0.15267462 0.040774021 0.92800003 -3.0173476e+38
0.1145879 0.043193676 0.94300002 nan
0.115981 0.043056265 0.94000006 nan
0.11748812 0.042964652 0.93800002 nan
0.11924201 0.042964652 0.93800002 nan
0.1209959 0.042964652 0.93800002 nan
0.1223572 0.042827241 0.93500006 nan
0.12410548 0.042827241 0.93500006 nan
0.12625757 0.042964652 0.93800002 nan
0.12760204 0.042827241 0.93500006 nan
0.12976535 0.042964652 0.93800002 nan
0.1310986 0.042827241 0.93500006 nan
0.13256273 0.042735629 0.93300003 nan
0.13387541 0.042598214 0.93000007 nan
0.13561435 0.042598214 0.93000007 nan
0.13735327 0.042598214 0.93000007 nan
0.13909221 0.042598214 0.93000007 nan
0.14052828 0.042506609 0.92800003 nan
0.14226347 0.042506609 0.92800003 nan
0.14399865 0.042506609 0.92800003 nan
0.14573385 0.042506609 0.92800003 nan
0.14746904 0.042506609 0.92800003 nan
0.14920424 0.042506609 0.92800003 nan
0.15093942 0.042506609 0.92800003 -3.1103937e+38
0.15267462 0.042506609 0.92800003 -2.4457795e+38
0.11246573 0.044811253 0.94000006 nan
0.11398034 0.044715907 0.93800002 nan
0.11536408 0.044572897 0.93500006 nan
0.11711236 0.044572897 0.93500006 nan
0.11860639 0.044477552 0.93300003 nan
0.12060892 0.044572897 0.93500006 nan
0.12209547 0.044477552 0.93300003 nan
0.12344182 0.044334535 0.93000007 nan
0.12518075 0.044334535 0.93000007 nan
0.12691969 0.044334535 0.93000007 nan
0.12865862 0.044334535 0.93000007 nan
0.13039754 0.044334535 0.93000007 nan
0.13213648 0.044334535 0.93000007 nan
0.13358751 0.044239193 0.92800003 nan
0.13532269 0.044239193 0.92800003 nan
0.13705789 0.044239193 0.92800003 nan
0.13834439 0.044096176 0.92500007 nan
0.14007398 0.044096176 0.92500007 nan
0.14180356 0.044096176 0.92500007 nan
0.14322279 0.044000834 0.92300004 nan
0.14494865 0.044000834 0.92300004 nan
0.14746904 0.044239193 0.92800003 nan
0.14840032 0.044000834 0.92300004 nan
0.15093942 0.044239193 0.92800003 -2.8179634e+38
0.10929819 0.046714857 0.94300002 nan
0.11047256 0.046467163 0.93800002 nan
0.11222645 0.046467163 0.93800002 nan
0.1136158 0.04631855 0.93500006 nan
0.1151173 0.046219472 0.93300003 nan
0.11686185 0.046219472 0.93300003 nan
0.11822502 0.046070855 0.93000007 nan
0.12035093 0.046219472 0.93300003 nan
0.12144116 0.045971777 0.92800003 nan
0.12317635 0.045971777 0.92800003 nan
0.12518075 0.046070855 0.93000007 nan
0.12691969 0.046070855 0.93000007 nan
0.12865862 0.046070855 0.93000007 nan
0.13011712 0.045971777 0.92800003 nan
0.13185231 0.045971777 0.92800003 nan
0.13358751 0.045971777 0.92800003 nan
0.13532269 0.045971777 0.92800003 nan
0.13661481 0.045823161 0.92500007 nan
0.13834439 0.045823161 0.92500007 nan
0.14007398 0.045823161 0.92500007 nan
0.14149696 0.045724086 0.92300004 nan
0.14322279 0.045724086 0.92300004 nan
0.14667448 0.045724086 0.92300004 -3.3634172e+38
0.10895047 0.048321232 0.94000006 nan
0.11047256 0.048218418 0.93800002 nan
0.11186752 0.048064206 0.93500006 nan
0.1136158 0.048064206 0.93500006 nan
0.1151173 0.047961392 0.93300003 nan
0.11648609 0.047807172 0.93000007 nan
0.11822502 0.047807172 0.93000007 nan
0.11996395 0.047807172 0.93000007 nan
0.12144116 0.047704365 0.92800003 nan
0.12317635 0.047704365 0.92800003 nan
0.12518075 0.047807172 0.93000007 nan
0.12664674 0.047704365 0.92800003 nan
0.12838192 0.047704365 0.92800003 nan
0.13011712 0.047704365 0.92800003 nan
0.13142607 0.047550146 0.92500007 nan
0.13315564 0.047550146 0.92500007 nan
0.13488524 0.047550146 0.92500007 nan
0.13661481 0.047550146 0.92500007 nan
0.13804527 0.047447335 0.92300004 nan
0.13977112 0.047447335 0.92300004 nan
0.14149696 0.047447335 0.92300004 nan
0.14275728 0.047293119 0.92000002 nan
0.14447752 0.047293119 0.92000002 nan
0.10719284 0.05007622 0.94000006 nan
0.10837095 0.049809858 0.93500006 nan
0.10988368 0.049703311 0.93300003 nan
0.1112693 0.049543492 0.93000007 nan
0.11300822 0.049543492 0.93000007 nan
0.11450039 0.049436949 0.92800003 nan
0.11623558 0.049436949 0.92800003 nan
0.11797077 0.049436949 0.92800003 nan
0.11970597 0.049436949 0.92800003 nan
0.12144116 0.049436949 0.92800003 nan
0.12277815 0.049277131 0.92500007 nan
0.12491155 0.049436949 0.92800003 nan
0.12664674 0.049436949 0.92800003 nan
0.12838192 0.049436949 0.92800003 nan
0.12969649 0.049277131 0.92500007 nan
0.1311419 0.049170587 0.92300004 nan
0.13286774 0.049170587 0.92300004 nan
0.13459358 0.049170587 0.92300004 nan
0.13631943 0.049170587 0.92300004 nan
0.13759659 0.049010769 0.92000002 nan
0.13931683 0.049010769 0.92000002 nan
0.14103705 0.049010769 0.92000002 nan
0.14244694 0.048904225 0.91800004 nan
0.10521089 0.051720928 0.93800002 nan
0.1060525 0.051279813 0.93000007 nan
0.10813914 0.051445231 0.93300003 nan
0.10953036 0.051279813 0.93000007 nan
0.11103 0.051169533 0.92800003 nan
0.1127652 0.051169533 0.92800003 nan
0.11450039 0.051169533 0.92800003 nan
0.11585982 0.051004115 0.92500007 nan
0.11758941 0.051004115 0.92500007 nan
0.11931898 0.051004115 0.92500007 nan
0.12104857 0.051004115 0.92500007 nan
0.12277815 0.051004115 0.92500007 nan
0.12450773 0.051004115 0.92500007 nan
0.12623732 0.051004115 0.92500007 nan
0.12769021 0.050893836 0.92300004 nan
0.12941605 0.050893836 0.92300004 nan
0.13071565 0.050728418 0.92000002 nan
0.13243589 0.050728418 0.92000002 nan
0.13415612 0.050728418 0.92000002 nan
0.13587636 0.050728418 0.92000002 nan
0.13729745 0.050618138 0.91800004 nan
0.13931683 0.050728418 0.92000002 nan
0.14073044 0.050618138 0.91800004 nan
0.14244694 0.050618138 0.91800004 -3.0040555e+38
0.10116097 0.053187151 0.93300003 nan
0.10290552 0.053187151 0.93300003 nan
0.10465006 0.053187151 0.93300003 nan
0.10582443 0.052902121 0.92800003 nan
0.10755962 0.052902121 0.92800003 nan
0.10894149 0.0527311 0.92500007 nan
0.11067107 0.0527311 0.92500007 nan
0.11240066 0.0527311 0.92500007 nan
0.11413024 0.0527311 0.92500007 nan
0.11560931 0.052617088 0.92300004 nan
0.11733516 0.052617088 0.92300004 nan
0.11906099 0.052617088 0.92300004 nan
0.12078684 0.052617088 0.92300004 nan
0.12251268 0.052617088 0.92300004 nan
0.12450773 0.0527311 0.92500007 nan
0.12596437 0.052617088 0.92300004 nan
0.12727518 0.052446067 0.92000002 nan
0.12899542 0.052446067 0.92000002 nan
0.13071565 0.052446067 0.92000002 nan
0.13214798 0.052332055 0.91800004 nan
0.13386448 0.052332055 0.91800004 nan
0.13558097 0.052332055 0.91800004 nan
0.13684878 0.052161034 0.91500002 nan
0.13901395 0.052332055 0.91800004 nan
0.14073044 0.052332055 0.91800004 -3.2039621e+38
0.099416435 0.054929074 0.93300003 nan
0.10061885 0.054634705 0.92800003 nan
0.10235404 0.054634705 0.92800003 nan
0.10408924 0.054634705 0.92800003 nan
0.10548232 0.054458082 0.92500007 nan
0.10721191 0.054458082 0.92500007 nan
0.10894149 0.054458082 0.92500007 nan
0.11067107 0.054458082 0.92500007 nan
0.11240066 0.054458082 0.92500007 nan
0.11388347 0.054340336 0.92300004 nan
0.11560931 0.054340336 0.92300004 nan
0.11695378 0.054163717 0.92000002 nan
0.11867402 0.054163717 0.92000002 nan
0.12039425 0.054163717 0.92000002 nan
0.12211449 0.054163717 0.92000002 nan
0.12383471 0.054163717 0.92000002 nan
0.12555495 0.054163717 0.92000002 nan
0.1269985 0.054045971 0.91800004 nan
0.12871499 0.054045971 0.91800004 nan
0.13043149 0.054045971 0.91800004 nan
0.13214798 0.054045971 0.91800004 nan
0.13342701 0.053869348 0.91500002 nan
0.13513789 0.053869348 0.91500002 nan
0.13684878 0.053869348 0.91500002 nan
0.13855965 0.053869348 0.91500002 -2.9774707e+38
0.14027055 0.053869348 0.91500002 -2.419195e+38
0.095413275 0.056367289 0.92800003 nan
0.097148471 0.056367289 0.92800003 nan
0.098883659 0.056367289 0.92800003 nan
0.10029358 0.056185067 0.92500007 nan
0.10235404 0.056367289 0.92800003 nan
0.10375274 0.056185067 0.92500007 nan
0.10548232 0.056185067 0.92500007 nan
0.10721191 0.056185067 0.92500007 nan
0.10870594 0.056063589 0.92300004 nan
0.11043178 0.056063589 0.92300004 nan
0.11215762 0.056063589 0.92300004 nan
0.11351331 0.055881366 0.92000002 nan
0.11523355 0.055881366 0.92000002 nan
0.11669954 0.055759884 0.91800004 nan
0.11841603 0.055759884 0.91800004 nan
0.12013253 0.055759884 0.91800004 nan
0.12184902 0.055759884 0.91800004 nan
0.12383471 0.055881366 0.92000002 nan
0.125282 0.055759884 0.91800004 nan
0.1269985 0.055759884 0.91800004 nan
0.12871499 0.055759884 0.91800004 nan
0.13043149 0.055759884 0.91800004 nan
0.13171612 0.055577662 0.91500002 nan
0.13342701 0.055577662 0.91500002 nan
0.13439943 0.055273958 0.91000003 nan
-0.042115901 0.058725949 0.93800002 nan
0.093879975 0.058225088 0.93000007 nan
0.095413275 0.058099877 0.92800003 nan
0.097148471 0.058099877 0.92800003 nan
0.098883659 0.058099877 0.92800003 nan
0.10029358 0.057912052 0.92500007 nan
0.10202316 0.057912052 0.92500007 nan
0.10375274 0.057912052 0.92500007 nan
0.10525426 0.057786837 0.92300004 nan
0.10698009 0.057786837 0.92300004 nan
0.10835262 0.057599016 0.92000002 nan
0.11007285 0.057599016 0.92000002 nan
0.11179308 0.057599016 0.92000002 nan
0.11326655 0.057473801 0.91800004 nan
0.11498304 0.057473801 0.91800004 nan
0.11669954 0.057473801 0.91800004 nan
0.11802905 0.057285976 0.91500002 nan
0.11973993 0.057285976 0.91500002 nan
0.12078715 0.05697294 0.91000003 nan
0.12289251 0.057160761 0.91300005 nan
0.12459965 0.057160761 0.91300005 nan
0.12589175 0.05697294 0.91000003 nan
0.12759329 0.05697294 0.91000003 nan
0.13000524 0.057285976 0.91500002 nan
-0.041981205 0.060283784 0.93500006 nan
-0.040232923 0.060283784 0.93500006 nan
0.093678087 0.059832461 0.92800003 nan
0.095104828 0.059639037 0.92500007 nan
0.096834414 0.059639037 0.92500007 nan
0.098563991 0.059639037 0.92500007 nan
0.10029358 0.059639037 0.92500007 nan
0.10180257 0.059510089 0.92300004 nan
0.10352841 0.059510089 0.92300004 nan
0.10491215 0.059316661 0.92000002 nan
0.10663238 0.059316661 0.92000002 nan
0.10776374 0.058994289 0.91500002 nan
0.10947463 0.058994289 0.91500002 nan
0.11118551 0.058994289 0.91500002 nan
0.11264963 0.058865342 0.91300005 nan
0.11398101 0.058671918 0.91000003 nan
0.11568255 0.058671918 0.91000003 nan
0.1171261 0.058542971 0.90800005 nan
0.11882389 0.058542971 0.90800005 nan
0.12052169 0.058542971 0.90800005 nan
0.12248868 0.058671918 0.91000003 nan
0.12419022 0.058671918 0.91000003 nan
0.12589175 0.058671918 0.91000003 nan
0.12759329 0.058671918 0.91000003 nan
0.12972109 0.058865342 0.91300005 nan
-0.043495636 0.061697733 0.93000007 nan
-0.041756704 0.061697733 0.93000007 nan
-0.040146861 0.061896756 0.93300003 nan
-0.038402319 0.061896756 0.93300003 nan
-0.036657777 0.061896756 0.93300003 nan
-0.034913238 0.061896756 0.93300003 nan
-0.033168696 0.061896756 0.93300003 nan
-0.031424154 0.061896756 0.93300003 nan
0.090402111 0.061697733 0.93000007 nan
0.091150276 0.061034311 0.92000002 nan
0.092870511 0.061034311 0.92000002 nan
0.094385117 0.060901631 0.91800004 nan
0.096101612 0.060901631 0.91800004 nan
0.097818106 0.060901631 0.91800004 nan
0.099534601 0.060901631 0.91800004 nan
0.1012511 0.060901631 0.91800004 nan
0.10263109 0.060702603 0.91500002 nan
0.10434198 0.060702603 0.91500002 nan
0.10605286 0.060702603 0.91500002 nan
0.10776374 0.060702603 0.91500002 nan
0.10923534 0.060569923 0.91300005 nan
0.11094248 0.060569923 0.91300005 nan
0.11227947 0.060370896 0.91000003 nan
0.11373051 0.060238216 0.90800005 nan
0.11568255 0.060370896 0.91000003 nan
0.1171261 0.060238216 0.90800005 nan
0.11882389 0.060238216 0.90800005 nan
0.12052169 0.060238216 0.90800005 nan
0.12248868 0.060370896 0.91000003 nan
0.12419022 0.060370896 0.91000003 nan
0.12589175 0.060370896 0.91000003 nan
0.12759329 0.060370896 0.91000003 nan
-0.043402094 0.063297637 0.92800003 nan
-0.041756704 0.063434049 0.93000007 nan
-0.040017772 0.063434049 0.93000007 nan
-0.03827884 0.063434049 0.93000007 nan
-0.036539912 0.063434049 0.93000007 nan
-0.034726135 0.063297637 0.92800003 nan
-0.032990944 0.063297637 0.92800003 nan
-0.031323116 0.063434049 0.93000007 nan
-0.029425127 0.063093007 0.92500007 nan
-0.027695546 0.063093007 0.92500007 nan
-0.025965963 0.063093007 0.92500007 nan
0.082997754 0.063093007 0.92500007 nan
0.084269345 0.062751964 0.92000002 nan
0.08598958 0.062751964 0.92000002 nan
0.087709814 0.062751964 0.92000002 nan
0.089235634 0.062615544 0.91800004 nan
0.090952128 0.062615544 0.91800004 nan
0.092668623 0.062615544 0.91800004 nan
0.094385117 0.062615544 0.91800004 nan
0.095787555 0.062410921 0.91500002 nan
0.097498439 0.062410921 0.91500002 nan
0.099209324 0.062410921 0.91500002 nan
0.10092021 0.062410921 0.91500002 nan
0.10240676 0.062274501 0.91300005 nan
0.10434198 0.062410921 0.91500002 nan
0.10582105 0.062274501 0.91300005 nan
0.10752819 0.062274501 0.91300005 nan
0.10887641 0.062069878 0.91000003 nan
0.11057794 0.062069878 0.91000003 nan
0.11203271 0.061933458 0.90800005 nan
0.11373051 0.061933458 0.90800005 nan
0.11542831 0.061933458 0.90800005 nan
0.1171261 0.061933458 0.90800005 nan
0.11882389 0.061933458 0.90800005 nan
0.12052169 0.061933458 0.90800005 nan
0.12248868 0.062069878 0.91000003 nan
0.12419022 0.062069878 0.91000003 nan
0.12589175 0.062069878 0.91000003 nan
0.12759329 0.062069878 0.91000003 nan
-0.043261789 0.064819992 0.92500007 nan
-0.041666903 0.065030217 0.92800003 nan
-0.039931711 0.065030217 0.92800003 nan
-0.038196519 0.065030217 0.92800003 nan
-0.036461327 0.065030217 0.92800003 nan
-0.034613878 0.064819992 0.92500007 nan
-0.032884292 0.064819992 0.92500007 nan
-0.031255752 0.065030217 0.92800003 nan
-0.029425127 0.064819992 0.92500007 nan
-0.027695546 0.064819992 0.92500007 nan
-0.025965963 0.064819992 0.92500007 nan
-0.024236379 0.064819992 0.92500007 nan
0.080828875 0.064469613 0.92000002 nan
0.08254911 0.064469613 0.92000002 nan
0.084269345 0.064469613 0.92000002 nan
0.08598958 0.064469613 0.92000002 nan
0.087519139 0.06432946 0.91800004 nan
0.089235634 0.06432946 0.91800004 nan
0.090654902 0.064119235 0.91500002 nan
0.092365786 0.064119235 0.91500002 nan
0.094076671 0.064119235 0.91500002 nan
0.095578179 0.063979082 0.91300005 nan
0.097285323 0.063979082 0.91300005 nan
0.098667189 0.063768856 0.91000003 nan
0.10036873 0.063768856 0.91000003 nan
0.10207026 0.063768856 0.91000003 nan
0.1037718 0.063768856 0.91000003 nan
0.10524153 0.063628703 0.90800005 nan
0.10693932 0.063628703 0.90800005 nan
0.10863712 0.063628703 0.90800005 nan
0.11033492 0.063628703 0.90800005 nan
0.11203271 0.063628703 0.90800005 nan
0.11373051 0.063628703 0.90800005 nan
0.11542831 0.063628703 0.90800005 nan
0.11686811 0.06348855 0.90600002 nan
0.11856216 0.06348855 0.90600002 nan
0.12025622 0.06348855 0.90600002 nan
0.12221949 0.063628703 0.90800005 nan
0.12391728 0.063628703 0.90800005 nan
-0.04316825 0.066403084 0.92300004 nan
-0.041532207 0.066546977 0.92500007 nan
-0.039802626 0.066546977 0.92500007 nan
-0.038073041 0.066546977 0.92500007 nan
-0.036264878 0.066403084 0.92300004 nan
-0.034539036 0.066403084 0.92300004 nan
-0.032813191 0.066403084 0.92300004 nan
-0.031154711 0.066546977 0.92500007 nan
-0.029425127 0.066546977 0.92500007 nan
-0.027635662 0.066403084 0.92300004 nan
-0.025909819 0.066403084 0.92300004 nan
-0.024236379 0.066546977 0.92500007 nan
-0.022506798 0.066546977 0.92500007 nan
-0.020777214 0.066546977 0.92500007 nan
0.080653168 0.066043369 0.91800004 nan
0.082369663 0.066043369 0.91800004 nan
0.08408615 0.066043369 0.91800004 nan
0.085802644 0.066043369 0.91800004 nan
0.087233134 0.065827549 0.91500002 nan
0.088944018 0.065827549 0.91500002 nan
0.090456747 0.065683663 0.91300005 nan
0.092163891 0.065683663 0.91300005 nan
0.093871035 0.065683663 0.91300005 nan
0.095264122 0.065467834 0.91000003 nan
0.096965656 0.065467834 0.91000003 nan
0.098450348 0.065323949 0.90800005 nan
0.10014814 0.065323949 0.90800005 nan
0.10184593 0.065323949 0.90800005 nan
0.10331566 0.065180063 0.90600002 nan
0.10500971 0.065180063 0.90600002 nan
0.10670377 0.065180063 0.90600002 nan
0.10863712 0.065323949 0.90800005 nan
0.11033492 0.065323949 0.90800005 nan
0.11178594 0.065180063 0.90600002 nan
0.11347999 0.065180063 0.90600002 nan
0.11517405 0.065180063 0.90600002 nan
0.11686811 0.065180063 0.90600002 nan
0.11856216 0.065180063 0.90600002 nan
0.12025622 0.065180063 0.90600002 nan
0.12195028 0.065180063 0.90600002 -3.2439948e+38
-0.04316825 0.068126336 0.92300004 nan
-0.041442409 0.068126336 0.92300004 nan
-0.039716564 0.068126336 0.92300004 nan
-0.037867241 0.067904912 0.92000002 nan
-0.036147006 0.067904912 0.92000002 nan
-0.034539036 0.068126336 0.92300004 nan
-0.032813191 0.068126336 0.92300004 nan
-0.03108735 0.068126336 0.92300004 nan
-0.029361505 0.068126336 0.92300004 nan
-0.027635662 0.068126336 0.92300004 nan
-0.025909819 0.068126336 0.92300004 nan
-0.024183976 0.068126336 0.92300004 nan
-0.022506798 0.068273962 0.92500007 nan
-0.020777214 0.068273962 0.92500007 nan
-0.019047633 0.068273962 0.92500007 nan
-0.017224438 0.067904912 0.92000002 nan
0.072070695 0.067757286 0.91800004 nan
0.073546059 0.067535862 0.91500002 nan
0.075256944 0.067535862 0.91500002 nan
0.076967828 0.067535862 0.91500002 nan
0.078936674 0.067757286 0.91800004 nan
0.080389597 0.067535862 0.91500002 nan
0.082100481 0.067535862 0.91500002 nan
0.083811365 0.067535862 0.91500002 nan
0.085522249 0.067535862 0.91500002 nan
0.087042451 0.067388237 0.91300005 nan
0.088749602 0.067388237 0.91300005 nan
0.090159513 0.06716682 0.91000003 nan
0.091861054 0.06716682 0.91000003 nan
0.09335696 0.067019194 0.90800005 nan
0.095054753 0.067019194 0.90800005 nan
0.096752547 0.067019194 0.90800005 nan
0.098233491 0.066871576 0.90600002 nan
0.099927545 0.066871576 0.90600002 nan
0.10162161 0.066871576 0.90600002 nan
0.10297356 0.066650145 0.90300006 nan
0.104662 0.066650145 0.90300006 nan
0.10635044 0.066650145 0.90300006 nan
0.10839783 0.066871576 0.90600002 nan
0.11009188 0.066871576 0.90600002 nan
0.11178594 0.066871576 0.90600002 nan
0.11310423 0.066650145 0.90300006 nan
0.11517405 0.066871576 0.90600002 nan
0.11648113 0.066650145 0.90300006 nan
0.11816958 0.066650145 0.90300006 nan
0.12025622 0.066871576 0.90600002 -3.0439863e+38
-0.043027941 0.069622561 0.92000002 -3.1238422e+38
-0.041217908 0.069471203 0.91800004 nan
-0.039501414 0.069471203 0.91800004 nan
-0.037784923 0.069471203 0.91800004 nan
-0.036147006 0.069622561 0.92000002 nan
-0.034351934 0.069471203 0.91800004 nan
-0.03270654 0.069622561 0.92000002 nan
-0.030986307 0.069622561 0.92000002 nan
-0.029266072 0.069622561 0.92000002 nan
-0.02754584 0.069622561 0.92000002 nan
-0.025825607 0.069622561 0.92000002 nan
-0.024105372 0.069622561 0.92000002 nan
-0.022385139 0.069622561 0.92000002 nan
-0.020732289 0.069849588 0.92300004 nan
-0.019006446 0.069849588 0.92300004 nan
-0.017224438 0.069622561 0.92000002 nan
-0.015554761 0.069849588 0.92300004 nan
-0.013828917 0.069849588 0.92300004 nan
0.068637706 0.069471203 0.91800004 nan
0.070124283 0.069244176 0.91500002 nan
0.071835175 0.069244176 0.91500002 nan
0.073546059 0.069244176 0.91500002 nan
0.074845694 0.068865798 0.91000003 nan
0.076547235 0.068865798 0.91000003 nan
0.078678712 0.069244176 0.91500002 nan
0.080213875 0.069092818 0.91300005 nan
0.081921019 0.069092818 0.91300005 nan
0.083628163 0.069092818 0.91300005 nan
0.085335307 0.069092818 0.91300005 nan
0.086756445 0.068865798 0.91000003 nan
0.088457979 0.068865798 0.91000003 nan
0.089961365 0.06871444 0.90800005 nan
0.091659158 0.06871444 0.90800005 nan
0.093151323 0.068563081 0.90600002 nan
0.094845377 0.068563081 0.90600002 nan
0.09653943 0.068563081 0.90600002 nan
0.097908214 0.068336055 0.90300006 nan
0.099596664 0.068336055 0.90300006 nan
0.10106078 0.068184704 0.90100002 nan
0.10274549 0.068184704 0.90100002 nan
0.10443019 0.068184704 0.90100002 nan
0.10576157 0.067957669 0.89800006 nan
0.10779961 0.068184704 0.90100002 nan
0.10948431 0.068184704 0.90100002 nan
0.11079887 0.067957669 0.89800006 nan
0.11310423 0.068336055 0.90300006 nan
0.11479268 0.068336055 0.90300006 nan
0.11648113 0.068336055 0.90300006 nan
0.11816958 0.068336055 0.90300006 -2.8448617e+38
-0.042794093 0.07095249 0.91500002 -1.993842e+38
-0.041083209 0.07095249 0.91500002 -2.5787023e+38
-0.039372325 0.07095249 0.91500002 nan
-0.037661441 0.07095249 0.91500002 nan
-0.035950556 0.07095249 0.91500002 nan
-0.034239672 0.07095249 0.91500002 nan
-0.032635439 0.071185119 0.91800004 nan
-0.030918946 0.071185119 0.91800004 nan
-0.02920245 0.071185119 0.91800004 nan
-0.027485956 0.071185119 0.91800004 nan
-0.025769463 0.071185119 0.91800004 nan
-0.024052968 0.071185119 0.91800004 nan
-0.022336474 0.071185119 0.91800004 nan
-0.020664904 0.071340211 0.92000002 nan
-0.018944671 0.071340211 0.92000002 nan
-0.017186992 0.071185119 0.91800004 nan
-0.015504205 0.071340211 0.92000002 nan
-0.013783971 0.071340211 0.92000002 nan
-0.012103074 0.071572833 0.92300004 nan
0.065204717 0.071185119 0.91800004 nan
0.066921212 0.071185119 0.91800004 nan
0.068413399 0.07095249 0.91500002 nan
0.069971003 0.070797399 0.91300005 nan
0.071678154 0.070797399 0.91300005 nan
0.07314416 0.070564777 0.91000003 nan
0.074845694 0.070564777 0.91000003 nan
0.076547235 0.070564777 0.91000003 nan
0.078248769 0.070564777 0.91000003 nan
0.079950303 0.070564777 0.91000003 nan
0.081651837 0.070564777 0.91000003 nan
0.083353378 0.070564777 0.91000003 nan
0.085054912 0.070564777 0.91000003 nan
0.086756445 0.070564777 0.91000003 nan
0.088263571 0.070409685 0.90800005 nan
0.089961365 0.070409685 0.90800005 nan
0.091457263 0.070254594 0.90600002 nan
0.092842877 0.070021965 0.90300006 nan
0.09453132 0.070021965 0.90300006 nan
0.096219771 0.070021965 0.90300006 nan
0.097691365 0.069866881 0.90100002 nan
0.099376075 0.069866881 0.90100002 nan
0.10072428 0.069634244 0.89800006 nan
0.10240338 0.069634244 0.89800006 nan
0.10385067 0.06947916 0.89600003 nan
0.10552602 0.06947916 0.89600003 nan
0.10744067 0.069634244 0.89800006 nan
0.10911977 0.069634244 0.89800006 nan
0.11079887 0.069634244 0.89800006 nan
0.11247796 0.069634244 0.89800006 nan
0.11479268 0.070021965 0.90300006 -2.8578477e+38
0.11648113 0.070021965 0.90300006 -2.4856594e+38
0.11816958 0.070021965 0.90300006 -1.9140883e+38
-0.042560246 0.072263755 0.91000003 -1.7147041e+38
-0.040858712 0.072263755 0.91000003 -2.0603034e+38
-0.039157175 0.072263755 0.91000003 -2.605339e+38
-0.037455641 0.072263755 0.91000003 -2.9510942e+38
-0.035754103 0.072263755 0.91000003 -3.3367265e+38
-0.034052569 0.072263755 0.91000003 nan
-0.032457687 0.07250198 0.91300005 nan
-0.030750541 0.07250198 0.91300005 nan
-0.029043397 0.07250198 0.91300005 nan
-0.027396133 0.072660804 0.91500002 nan
-0.025685249 0.072660804 0.91500002 nan
-0.023974365 0.072660804 0.91500002 nan
-0.02226348 0.072660804 0.91500002 nan
-0.020619981 0.072899036 0.91800004 nan
-0.018903486 0.072899036 0.91800004 nan
-0.017130826 0.072660804 0.91500002 nan
-0.015419942 0.072660804 0.91500002 nan
-0.013709057 0.072660804 0.91500002 nan
-0.011998173 0.072660804 0.91500002 nan
-0.010287289 0.072660804 0.91500002 nan
-0.0085764043 0.072660804 0.91500002 nan
-0.0068655196 0.072660804 0.91500002 nan
-0.0051715355 0.072899036 0.91800004 nan
-0.0034625686 0.07305786 0.92000002 nan
0.054905754 0.072899036 0.91800004 nan
0.056622248 0.072899036 0.91800004 nan
0.058148094 0.072660804 0.91500002 nan
0.059728138 0.07250198 0.91300005 nan
0.061233412 0.072263755 0.91000003 nan
0.06293495 0.072263755 0.91000003 nan
0.064494431 0.072104923 0.90800005 nan
0.066192225 0.072104923 0.90800005 nan
0.067890018 0.072104923 0.90800005 nan
0.069587819 0.072104923 0.90800005 nan
0.071285613 0.072104923 0.90800005 nan
0.072983406 0.072104923 0.90800005 nan
0.074681208 0.072104923 0.90800005 nan
0.076379001 0.072104923 0.90800005 nan
0.077904813 0.071946107 0.90600002 nan
0.079598874 0.071946107 0.90600002 nan
0.081292927 0.071946107 0.90600002 nan
0.082986988 0.071946107 0.90600002 nan
0.084400639 0.071707875 0.90300006 nan
0.085898414 0.071549051 0.90100002 nan
0.087583125 0.071549051 0.90100002 nan
0.089465983 0.071707875 0.90300006 nan
0.090952538 0.071549051 0.90100002 nan
0.092328794 0.071310818 0.89800006 nan
0.094007887 0.071310818 0.89800006 nan
0.095473878 0.071152002 0.89600003 nan
0.097149238 0.071152002 0.89600003 nan
0.09882459 0.071152002 0.89600003 nan
0.10049995 0.071152002 0.89600003 nan
0.10194724 0.070993178 0.89400005 nan
0.10361886 0.070993178 0.89400005 nan
0.10529048 0.070993178 0.89400005 nan
0.10720138 0.071152002 0.89600003 nan
0.10887674 0.071152002 0.89600003 -3.3501249e+38
0.1105521 0.071152002 0.89600003 -2.8582572e+38
0.11247796 0.071310818 0.89800006 -2.6850927e+38
-0.042466708 0.073800169 0.90800005 -1.7014118e+38
-0.04076891 0.073800169 0.90800005 -1.754581e+38
-0.039071117 0.073800169 0.90800005 -1.8343346e+38
-0.037373319 0.073800169 0.90800005 -2.0470111e+38
-0.035675526 0.073800169 0.90800005 -2.3926104e+38
-0.033977728 0.073800169 0.90800005 -2.9774709e+38
-0.032351032 0.073962733 0.91000003 nan
-0.030649498 0.073962733 0.91000003 nan
-0.028947962 0.073962733 0.91000003 nan
-0.027336251 0.074206561 0.91300005 nan
-0.025629107 0.074206561 0.91300005 nan
-0.023921963 0.074206561 0.91300005 nan
-0.022214817 0.074206561 0.91300005 nan
-0.020507673 0.074206561 0.91300005 nan
-0.01884171 0.074369125 0.91500002 nan
-0.017093383 0.074206561 0.91300005 nan
-0.015386238 0.074206561 0.91300005 nan
-0.013679092 0.074206561 0.91300005 nan
-0.011971947 0.074206561 0.91300005 nan
-0.010264802 0.074206561 0.91300005 nan
-0.0085576577 0.074206561 0.91300005 nan
-0.0068505127 0.074206561 0.91300005 nan
-0.0051546348 0.074369125 0.91500002 nan
-0.0034550414 0.074612945 0.91800004 nan
-0.0017328658 0.074369125 0.91500002 nan
-2.2053344e-05 0.074612945 0.91800004 nan
0.0016944406 0.074612945 0.91800004 nan
0.0034109345 0.074612945 0.91800004 nan
0.0051274286 0.074612945 0.91800004 nan
0.0068215565 0.074369125 0.91500002 nan
0.0085604163 0.074612945 0.91800004 nan
0.01027691 0.074612945 0.91800004 nan
0.011993404 0.074612945 0.91800004 nan
0.013709898 0.074612945 0.91800004 nan
0.051472764 0.074612945 0.91800004 nan
0.053189259 0.074612945 0.91800004 nan
0.054726321 0.074369125 0.91500002 nan
0.056313846 0.074206561 0.91300005 nan
0.05802099 0.074206561 0.91300005 nan
0.059531879 0.073962733 0.91000003 nan
0.061098833 0.073800169 0.90800005 nan
0.062796637 0.073800169 0.90800005 nan
0.064494431 0.073800169 0.90800005 nan
0.066192225 0.073800169 0.90800005 nan
0.067740478 0.07363762 0.90600002 nan
0.069434538 0.07363762 0.90600002 nan
0.071128592 0.07363762 0.90600002 nan
0.072822645 0.07363762 0.90600002 nan
0.074516706 0.07363762 0.90600002 nan
0.07621076 0.07363762 0.90600002 nan
0.077904813 0.07363762 0.90600002 nan
0.079335302 0.073393784 0.90300006 nan
0.081023745 0.073393784 0.90300006 nan
0.082529001 0.073231228 0.90100002 nan
0.084213711 0.073231228 0.90100002 nan
0.085612401 0.072987393 0.89800006 nan
0.087291501 0.072987393 0.89800006 nan
0.088970594 0.072987393 0.89800006 nan
0.090447806 0.072824843 0.89600003 nan
0.092123158 0.072824843 0.89600003 nan
0.093798518 0.072824843 0.89600003 nan
0.095260769 0.072662286 0.89400005 nan
0.097149238 0.072824843 0.89600003 nan
0.098604009 0.072662286 0.89400005 nan
0.10027562 0.072662286 0.89400005 nan
0.10194724 0.072662286 0.89400005 nan
0.10327114 0.072418451 0.89100003 nan
0.10529048 0.072662286 0.89400005 nan
0.1069621 0.072662286 0.89400005 -3.1380259e+38
0.10863372 0.072662286 0.89400005 -2.499001e+38
0.11030533 0.072662286 0.89400005 -1.9273806e+38
-0.042373169 0.075329132 0.90600002 -1.7014118e+38
-0.040679112 0.075329132 0.90600002 -1.7014118e+38
-0.038985059 0.075329132 0.90600002 -1.7014118e+38
-0.037291002 0.075329132 0.90600002 -1.7678732e+38
-0.035596944 0.075329132 0.90600002 -1.9140883e+38
-0.033902887 0.075329132 0.90600002 -2.2862722e+38
-0.032208834 0.075329132 0.90600002 -2.7915352e+38
-0.030582137 0.075495414 0.90800005 -3.1239985e+38
-0.028947962 0.075661711 0.91000003 nan
-0.027246427 0.075661711 0.91000003 nan
-0.025544891 0.075661711 0.91000003 nan
-0.023843357 0.075661711 0.91000003 nan
-0.022141822 0.075661711 0.91000003 nan
-0.020507673 0.075911142 0.91300005 nan
-0.018800527 0.075911142 0.91300005 nan
-0.017093383 0.075911142 0.91300005 nan
-0.015335679 0.075661711 0.91000003 nan
-0.013679092 0.075911142 0.91300005 nan
-0.011971947 0.075911142 0.91300005 nan
-0.010264802 0.075911142 0.91300005 nan
-0.0085576577 0.075911142 0.91300005 nan
-0.0068280031 0.075661711 0.91000003 nan
-0.0051433682 0.075911142 0.91300005 nan
-0.0034437503 0.076077439 0.91500002 nan
-0.001729078 0.075911142 0.91300005 nan
-2.1933227e-05 0.075911142 0.91300005 nan
0.0016852117 0.075911142 0.91300005 nan
0.0033997877 0.076077439 0.91500002 nan
0.0051106722 0.076077439 0.91500002 nan
0.006806646 0.075911142 0.91300005 nan
0.0085137915 0.075911142 0.91300005 nan
0.010220936 0.075911142 0.91300005 nan
0.01195421 0.076077439 0.91500002 nan
0.013665095 0.076077439 0.91500002 nan
0.015375979 0.076077439 0.91500002 nan
0.039328363 0.076077439 0.91500002 nan
0.041039247 0.076077439 0.91500002 nan
0.042656686 0.075911142 0.91300005 nan
0.044363834 0.075911142 0.91300005 nan
0.045919593 0.075661711 0.91000003 nan
0.047882784 0.076077439 0.91500002 nan
0.049593668 0.076077439 0.91500002 nan
0.05119241 0.075911142 0.91300005 nan
0.052725736 0.075661711 0.91000003 nan
0.054427274 0.075661711 0.91000003 nan
0.056128807 0.075661711 0.91000003 nan
0.057703242 0.075495414 0.90800005 nan
0.059401039 0.075495414 0.90800005 nan
0.060964257 0.075329132 0.90600002 nan
0.06265831 0.075329132 0.90600002 nan
0.064139284 0.075079694 0.90300006 nan
0.066046424 0.075329132 0.90600002 nan
0.067740478 0.075329132 0.90600002 nan
0.069434538 0.075329132 0.90600002 nan
0.070736051 0.074913405 0.90100002 nan
0.072822645 0.075329132 0.90600002 nan
0.074105471 0.074913405 0.90100002 nan
0.075790174 0.074913405 0.90100002 nan
0.077474885 0.074913405 0.90100002 nan
0.079159588 0.074913405 0.90100002 nan
0.080844298 0.074913405 0.90100002 nan
0.082254209 0.074663967 0.89800006 nan
0.083933301 0.074663967 0.89800006 nan
0.085421734 0.074497685 0.89600003 nan
0.087097086 0.074497685 0.89600003 nan
0.088772446 0.074497685 0.89600003 nan
0.090245917 0.074331395 0.89400005 nan
0.09191753 0.074331395 0.89400005 nan
0.093589149 0.074331395 0.89400005 nan
0.095260769 0.074331395 0.89400005 nan
0.096932389 0.074331395 0.89400005 nan
0.098273113 0.074081957 0.89100003 nan
0.099939123 0.074081957 0.89100003 nan
0.10160513 0.074081957 0.89100003 nan
0.10303933 0.073915668 0.88900006 -3.1378141e+38
0.1047016 0.073915668 0.88900006 -2.9116362e+38
0.10636387 0.073915668 0.88900006 -2.2598973e+38
0.10802614 0.073915668 0.88900006 -2.033719e+38
-0.04223286 0.076765604 0.90300006 -1.7014118e+38
-0.040544413 0.076765604 0.90300006 -1.7014118e+38
-0.038855966 0.076765604 0.90300006 -1.7014118e+38
-0.037167519 0.076765604 0.90300006 -1.7147041e+38
-0.035479072 0.076765604 0.90300006 -1.7279964e+38
-0.033902887 0.077020638 0.90600002 -1.7811655e+38
-0.032208834 0.077020638 0.90600002 -1.8609192e+38
-0.030514777 0.077020638 0.90600002 -2.1001802e+38
-0.02882072 0.077020638 0.90600002 -2.4590718e+38
-0.027186546 0.07719066 0.90800005 -3.097257e+38
-0.025488749 0.07719066 0.90800005 nan
-0.023790954 0.07719066 0.90800005 nan
-0.022093158 0.07719066 0.90800005 nan
-0.020395363 0.07719066 0.90800005 nan
-0.018697567 0.07719066 0.90800005 nan
-0.017037215 0.07736069 0.91000003 nan
-0.015301975 0.07719066 0.90800005 nan
-0.013634144 0.07736069 0.91000003 nan
-0.011906384 0.07719066 0.90800005 nan
-0.010208588 0.07719066 0.90800005 nan
-0.0085107926 0.07719066 0.90800005 nan
-0.0068129962 0.07719066 0.90800005 nan
-0.0051264674 0.07736069 0.91000003 nan
-0.003424932 0.07736069 0.91000003 nan
-0.0017233966 0.07736069 0.91000003 nan
-2.1861157e-05 0.07736069 0.91000003 nan
0.0016796743 0.07736069 0.91000003 nan
0.0033812094 0.07736069 0.91000003 nan
0.0050827451 0.07736069 0.91000003 nan
0.0067842803 0.07736069 0.91000003 nan
0.0084858164 0.07736069 0.91000003 nan
0.010187352 0.07736069 0.91000003 nan
0.011928082 0.077615723 0.91300005 nan
0.013635226 0.077615723 0.91300005 nan
0.015426393 0.078040779 0.91800004 nan
0.017142886 0.078040779 0.91800004 nan
0.035710383 0.07736069 0.91000003 nan
0.037411917 0.07736069 0.91000003 nan
0.039113455 0.07736069 0.91000003 nan
0.040814988 0.07736069 0.91000003 nan
0.042516526 0.07736069 0.91000003 nan
0.044120878 0.07719066 0.90800005 nan
0.045818672 0.07719066 0.90800005 nan
0.047516469 0.07719066 0.90800005 nan
0.049322665 0.07736069 0.91000003 nan
0.051024202 0.07736069 0.91000003 nan
0.052609857 0.07719066 0.90800005 nan
0.054307651 0.07719066 0.90800005 nan
0.056005448 0.07719066 0.90800005 nan
0.057576142 0.077020638 0.90600002 nan
0.059270199 0.077020638 0.90600002 nan
0.060762387 0.076765604 0.90300006 nan
0.062450834 0.076765604 0.90300006 nan
0.063997224 0.076595582 0.90100002 nan
0.065681934 0.076595582 0.90100002 nan
0.067366637 0.076595582 0.90100002 nan
0.068821423 0.076340549 0.89800006 nan
0.070500523 0.076340549 0.89800006 nan
0.072420761 0.076595582 0.90100002 nan
0.073858716 0.076340549 0.89800006 nan
0.075537816 0.076340549 0.89800006 nan
0.077216916 0.076340549 0.89800006 nan
0.078896008 0.076340549 0.89800006 nan
0.080575109 0.076340549 0.89800006 nan
0.082071014 0.076170526 0.89600003 nan
0.083746374 0.076170526 0.89600003 nan
0.085231058 0.076000504 0.89400005 nan
0.086902678 0.076000504 0.89400005 nan
0.088277064 0.075745463 0.89100003 nan
0.090245917 0.076000504 0.89400005 nan
0.09191753 0.076000504 0.89400005 nan
0.093275085 0.075745463 0.89100003 nan
0.094941095 0.075745463 0.89100003 nan
0.096607104 0.075745463 0.89100003 nan
0.098273113 0.075745463 0.89100003 nan
0.099939123 0.075745463 0.89100003 -3.1505928e+38
0.10137706 0.075575441 0.88900006 -2.6983373e+38
0.10303933 0.075575441 0.88900006 -2.1799341e+38
0.10446606 0.075405419 0.88700002 -2.0071343e+38
0.10612459 0.075405419 0.88700002 -1.7944578e+38
-0.043921307 0.078451514 0.90300006 -1.7014118e+38
-0.04223286 0.078451514 0.90300006 -1.7014118e+38
-0.040544413 0.078451514 0.90300006 -1.7014118e+38
-0.038855966 0.078451514 0.90300006 -1.7014118e+38
-0.037085202 0.078277759 0.90100002 -1.7014118e+38
-0.035400495 0.078277759 0.90100002 -1.7014118e+38
-0.033790626 0.078451514 0.90300006 -1.7014118e+38
-0.032102179 0.078451514 0.90300006 -1.7014118e+38
-0.030413734 0.078451514 0.90300006 -1.7678732e+38
-0.02882072 0.07871215 0.90600002 -1.9140883e+38
-0.027126664 0.07871215 0.90600002 -2.3128567e+38
-0.025432607 0.07871215 0.90600002 -2.7915352e+38
-0.023738552 0.07871215 0.90600002 -3.097518e+38
-0.022044495 0.07871215 0.90600002 -3.363416e+38
-0.020283053 0.078451514 0.90300006 nan
-0.018656384 0.07871215 0.90600002 nan
-0.016906159 0.078451514 0.90300006 nan
-0.015217713 0.078451514 0.90300006 nan
-0.013574214 0.07871215 0.90600002 nan
-0.011880158 0.07871215 0.90600002 nan
-0.010186101 0.07871215 0.90600002 nan
-0.008492046 0.07871215 0.90600002 nan
-0.0067979894 0.07871215 0.90600002 nan
-0.0051152008 0.078885905 0.90800005 nan
-0.0034174046 0.078885905 0.90800005 nan
-0.0017196089 0.078885905 0.90800005 nan
-2.1813112e-05 0.078885905 0.90800005 nan
0.0016759826 0.078885905 0.90800005 nan
0.0033737784 0.078885905 0.90800005 nan
0.0050827451 0.079059668 0.91000003 nan
0.0067842803 0.079059668 0.91000003 nan
0.0084858164 0.079059668 0.91000003 nan
0.010164961 0.078885905 0.90800005 nan
0.011888887 0.079059668 0.91000003 nan
0.013560553 0.078885905 0.90800005 nan
0.015258349 0.078885905 0.90800005 nan
