# .PCD v0.7 - Point Cloud Data file format
VERSION 0.7
FIELDS x y z rgb
SIZE 4 4 4 4
TYPE F F F F
COUNT 1 1 1 1
WIDTH 512
HEIGHT 1
VIEWPOINT 0 0 0 1 0 0 0
POINTS 512
DATA ascii
-0.13481806 0.049472887 0.63800001 nan
-0.14175321 0.050584625 0.63700002 -3.207614e+38
-0.14078279 0.050664037 0.63800001 -2.6185933e+38
-0.13958985 0.050664037 0.63800001 -2.6318806e+38
-0.13883074 0.050822858 0.64000005 -2.8844276e+38
-0.13763405 0.050822858 0.64000005 -2.9641821e+38
-0.13643737 0.050822858 0.64000005 -3.0705211e+38
-0.13481806 0.050664037 0.63800001 -3.1237426e+38
-0.13362512 0.050664037 0.63800001 -3.1636713e+38
-0.13243218 0.050664037 0.63800001 -3.2035492e+38
-0.13123924 0.050664037 0.63800001 -3.3631628e+38
-0.12963863 0.050505213 0.63600004 nan
-0.12844941 0.050505213 0.63600004 -3.3901062e+38
-0.14175321 0.051773909 0.63700002 -3.3812462e+38
-0.14056213 0.051773909 0.63700002 -2.8456006e+38
-0.13958985 0.051855192 0.63800001 -2.552123e+38
-0.13883074 0.052017745 0.64000005 -2.8046711e+38
-0.13698891 0.051773909 0.63700002 -2.9110117e+38
-0.13579783 0.051773909 0.63700002 -2.8977229e+38
-0.13460676 0.051773909 0.63700002 -2.9243048e+38
-0.13341568 0.051773909 0.63700002 -3.0439323e+38
-0.13201703 0.051692631 0.63600004 -3.1103941e+38
-0.13103354 0.051773909 0.63700002 -3.2300261e+38
-0.12963863 0.051692631 0.63600004 -3.323073e+38
-0.12844941 0.051692631 0.63600004 nan
-0.1252781 0.051367521 0.63200003 nan
-0.12409638 0.051367521 0.63200003 nan
-0.12291465 0.051367521 0.63200003 nan
-0.14078279 0.053046342 0.63800001 -2.7944706e+38
-0.13958985 0.053046342 0.63800001 -1.9938517e+38
-0.13883074 0.053212631 0.64000005 -2.2597409e+38
-0.13720395 0.053046342 0.63800001 -2.6186881e+38
-0.13579783 0.052963194 0.63700002 -2.8711398e+38
-0.13460676 0.052963194 0.63700002 -2.8977211e+38
-0.13320623 0.052880052 0.63600004 -2.990763e+38
-0.13201703 0.052880052 0.63600004 -3.0173496e+38
-0.13103354 0.052963194 0.63700002 -3.0306443e+38
-0.12963863 0.052880052 0.63600004 -3.083813e+38
-0.12844941 0.052880052 0.63600004 -3.1503263e+38
-0.12686002 0.052713763 0.634 -3.1769644e+38
-0.1252781 0.052547473 0.63200003 -3.2567199e+38
-0.12409638 0.052547473 0.63200003 -3.3368872e+38
-0.12291465 0.052547473 0.63200003 nan
-0.12093269 0.052713763 0.634 nan
-0.14056213 0.054152481 0.63700002 nan
-0.13958985 0.054237496 0.63800001 -2.5542105e+38
-0.13883074 0.054407518 0.64000005 -2.2464034e+38
-0.13698891 0.054152481 0.63700002 -2.4989555e+38
-0.13579783 0.054152481 0.63700002 -2.8578438e+38
-0.13460676 0.054152481 0.63700002 -2.9110119e+38
-0.13320623 0.05406747 0.63600004 -2.9110097e+38
-0.13201703 0.05406747 0.63600004 -2.9375971e+38
-0.13082783 0.05406747 0.63600004 -2.9243075e+38
-0.12923096 0.053897448 0.634 -2.9110142e+38
-0.12804548 0.053897448 0.634 -2.9110134e+38
-0.12686002 0.053897448 0.634 -2.9508894e+38
-0.1252781 0.053727422 0.63200003 -3.0040579e+38
-0.12409638 0.053727422 0.63200003 -3.0838104e+38
-0.12291465 0.053727422 0.63200003 -3.2300764e+38
-0.12211816 0.053897448 0.634 -3.3233842e+38
-0.12093269 0.053897448 0.634 nan
-0.11974723 0.053897448 0.634 nan
-0.11818776 0.053727422 0.63200003 nan
-0.11700603 0.053727422 0.63200003 nan
-0.11446118 0.053642411 0.63100004 nan
-0.11328132 0.053642411 0.63100004 nan
-0.14056213 0.055341765 0.63700002 nan
-0.13937105 0.055341765 0.63700002 nan
-0.13817999 0.055341765 0.63700002 -3.1412597e+38
-0.13698891 0.055341765 0.63700002 -2.6601291e+38
-0.13579783 0.055341765 0.63700002 -2.7256482e+38
-0.13439544 0.055254888 0.63600004 -2.7785066e+38
-0.13320623 0.055254888 0.63600004 -2.8845353e+38
-0.13180946 0.05516801 0.63500005 -2.9244647e+38
-0.13062212 0.05516801 0.63500005 -2.9111205e+38
-0.12923096 0.055081133 0.634 -2.8977231e+38
-0.12764156 0.054907374 0.63200003 -2.9243067e+38
-0.12645982 0.054907374 0.63200003 -2.9375965e+38
-0.1252781 0.054907374 0.63200003 -2.9375939e+38
-0.12409638 0.054907374 0.63200003 -2.9641784e+38
-0.12291465 0.054907374 0.63200003 -3.0306398e+38
-0.12211816 0.055081133 0.634 -3.0971043e+38
-0.12055121 0.054907374 0.63200003 -3.1503282e+38
-0.11936948 0.054907374 0.63200003 -3.2168417e+38
-0.11818776 0.054907374 0.63200003 -3.296596e+38
-0.11700603 0.054907374 0.63200003 -3.3901595e+38
-0.1158243 0.054907374 0.63200003 nan
-0.11446118 0.054820493 0.63100004 nan
-0.11328132 0.054820493 0.63100004 nan
-0.11192381 0.054733615 0.63000005 nan
-0.14056213 0.056531053 0.63700002 nan
-0.13937105 0.056531053 0.63700002 nan
-0.13817999 0.056531053 0.63700002 nan
-0.13677385 0.056442305 0.63600004 -3.1677386e+38
-0.13558465 0.056442305 0.63600004 -2.8872454e+38
-0.13418412 0.056353562 0.63500005 -2.7665205e+38
-0.13299678 0.056353562 0.63500005 -2.7522384e+38
-0.13180946 0.056353562 0.63500005 -2.7785621e+38
-0.13062212 0.056353562 0.63500005 -2.8447625e+38
-0.12882328 0.056087323 0.63200003 -2.844553e+38
-0.12764156 0.056087323 0.63200003 -2.9110134e+38
-0.12625974 0.055998579 0.63100004 -2.9375981e+38
-0.12507989 0.055998579 0.63100004 -2.9375979e+38
-0.12390003 0.055998579 0.63100004 -2.950888e+38
-0.12272017 0.055998579 0.63100004 -3.0173478e+38
-0.12154031 0.055998579 0.63100004 -3.0306425e+38
-0.12055121 0.056087323 0.63200003 -3.017352e+38
-0.1191806 0.055998579 0.63100004 -3.0572264e+38
-0.11800075 0.055998579 0.63100004 -3.0971016e+38
-0.11700603 0.056087323 0.63200003 -3.2167851e+38
-0.1158243 0.056087323 0.63200003 -3.3763462e+38
-0.11446118 0.055998579 0.63100004 nan
-0.11328132 0.055998579 0.63100004 nan
-0.11192381 0.055909831 0.63000005 nan
-0.11074582 0.055909831 0.63000005 nan
-0.10956784 0.055909831 0.63000005 nan
-0.10838985 0.055909831 0.63000005 nan
-0.10602062 0.055288609 0.62300003 nan
-0.10468742 0.055199865 0.62200004 nan
-0.14056213 0.057720337 0.63700002 nan
-0.13937105 0.057720337 0.63700002 nan
-0.13796306 0.057629723 0.63600004 nan
-0.13677385 0.057629723 0.63600004 nan
-0.13537146 0.057539113 0.63500005 -3.3545102e+38
-0.13418412 0.057539113 0.63500005 -3.2474921e+38
-0.13299678 0.057539113 0.63500005 -3.1004393e+38
-0.13180946 0.057539113 0.63500005 -2.9129933e+38
-0.13062212 0.057539113 0.63500005 -2.8987642e+38
-0.12882328 0.057267275 0.63200003 -2.84497e+38
-0.12764156 0.057267275 0.63200003 -2.8845345e+38
-0.12625974 0.057176661 0.63100004 -2.9244641e+38
-0.12507989 0.057176661 0.63100004 -2.9508932e+38
-0.12390003 0.057176661 0.63100004 -2.9376006e+38
-0.12252568 0.057086051 0.63000005 -2.8977233e+38
-0.1213477 0.057086051 0.63000005 -2.9243073e+38
-0.12016971 0.057086051 0.63000005 -2.9110142e+38
-0.1191806 0.057176661 0.63100004 -2.9375959e+38
-0.11800075 0.057176661 0.63100004 -2.990763e+38
-0.11682089 0.057176661 0.63100004 -3.0572268e+38
-0.11564103 0.057176661 0.63100004 -3.0705207e+38
-0.11446118 0.057176661 0.63100004 -3.1369797e+38
-0.11328132 0.057176661 0.63100004 -3.203492e+38
-0.11192381 0.057086051 0.63000005 -3.2567177e+38
-0.11074582 0.057086051 0.63000005 -3.3897482e+38
-0.10956784 0.057086051 0.63000005 nan
-0.14056213 0.058909621 0.63700002 nan
-0.13937105 0.058909621 0.63700002 nan
-0.13796306 0.058817144 0.63600004 nan
-0.13677385 0.058817144 0.63600004 nan
-0.13537146 0.058724664 0.63500005 nan
-0.13397282 0.058632184 0.634 -3.2877322e+38
-0.13278735 0.058632184 0.634 -3.1943199e+38
-0.13160188 0.058632184 0.634 -3.0205295e+38
-0.13041642 0.058632184 0.634 -2.9133568e+38
-0.12882328 0.058447223 0.63200003 -2.8726985e+38
-0.1274396 0.058354743 0.63100004 -2.9252946e+38
-0.12625974 0.058354743 0.63100004 -2.8982423e+38
-0.12488165 0.058262266 0.63000005 -2.9112235e+38
-0.12370367 0.058262266 0.63000005 -2.9111203e+38
-0.1223312 0.058169786 0.62900001 -2.8977247e+38
-0.12096247 0.058077306 0.62800002 -2.8977756e+38
-0.12016971 0.058262266 0.63000005 -2.8844824e+38
-0.11899173 0.058262266 0.63000005 -2.9110122e+38
-0.11800075 0.058354743 0.63100004 -2.9375945e+38
-0.11682089 0.058354743 0.63100004 -2.9375965e+38
-0.11564103 0.058354743 0.63100004 -2.95089e+38
-0.11446118 0.058354743 0.63100004 -2.9774721e+38
-0.11328132 0.058354743 0.63100004 -3.0040553e+38
-0.11192381 0.058262266 0.63000005 -3.0572246e+38
-0.11074582 0.058262266 0.63000005 -3.1369787e+38
-0.10956784 0.058262266 0.63000005 -3.2699554e+38
-0.10787371 0.057984825 0.62700003 nan
-0.10602062 0.057614904 0.62300003 nan
-0.10468742 0.057522427 0.62200004 nan
-0.10319151 0.057337467 0.62 nan
-0.13774613 0.059910215 0.63500005 nan
-0.13655879 0.059910215 0.63500005 nan
-0.13537146 0.059910215 0.63500005 -3.2746461e+38
-0.13397282 0.059815869 0.634 -3.1278049e+38
-0.13278735 0.059815869 0.634 -3.1677329e+38
-0.13160188 0.059815869 0.634 -3.1409398e+38
-0.130005 0.059627175 0.63200003 -3.1674723e+38
-0.12882328 0.059627175 0.63200003 -3.1940562e+38
-0.1274396 0.059532829 0.63100004 -3.113833e+38
-0.12625974 0.059532829 0.63100004 -3.0201108e+38
-0.12488165 0.059438482 0.63000005 -2.9797144e+38
-0.12331096 0.059249785 0.62800002 -2.9126309e+38
-0.1223312 0.059344135 0.62900001 -2.7921698e+38
-0.12096247 0.059249785 0.62800002 -2.8050426e+38
-0.11978822 0.059249785 0.62800002 -2.8980347e+38
-0.11880285 0.059344135 0.62900001 -2.9377563e+38
-0.11762673 0.059344135 0.62900001 -2.9376006e+38
-0.11645062 0.059344135 0.62900001 -2.9243073e+38
-0.11545777 0.059438482 0.63000005 -2.9110144e+38
-0.11427978 0.059438482 0.63000005 -2.95089e+38
-0.11274274 0.059249785 0.62800002 -2.9375967e+38
-0.1115685 0.059249785 0.62800002 -2.9375949e+38
-0.11039425 0.059249785 0.62800002 -2.9641784e+38
-0.10904609 0.059155442 0.62700003 -3.0439349e+38
-0.10787371 0.059155442 0.62700003 -3.0838651e+38
-0.10602062 0.058778051 0.62300003 -3.1636683e+38
-0.10468742 0.058683708 0.62200004 -3.256713e+38
-0.10319151 0.058495015 0.62 -3.3365245e+38
-0.10203222 0.058495015 0.62 nan
-0.10087293 0.058495015 0.62 nan
-0.10003531 0.058683708 0.62200004 nan
-0.098872282 0.058683708 0.62200004 nan
-0.13515829 0.060999554 0.634 -3.2611441e+38
-0.13397282 0.060999554 0.634 -3.1276999e+38
-0.13278735 0.060999554 0.634 -3.1276997e+38
-0.13160188 0.060999554 0.634 -3.1010113e+38
-0.130005 0.060807124 0.63200003 -3.1276486e+38
-0.12861945 0.060710911 0.63100004 -3.1145127e+38
-0.1274396 0.060710911 0.63100004 -3.0746362e+38
-0.12585954 0.060518485 0.62900001 -3.061187e+38
-0.12468342 0.060518485 0.62900001 -3.0477373e+38
-0.12331096 0.060422268 0.62800002 -2.9939447e+38
-0.12213672 0.060422268 0.62800002 -2.8466891e+38
-0.12096247 0.060422268 0.62800002 -2.8456997e+38
-0.11978822 0.060422268 0.62800002 -2.9249851e+38
-0.11861398 0.060422268 0.62800002 -2.9113279e+38
-0.11743973 0.060422268 0.62800002 -2.9244115e+38
-0.11626548 0.060422268 0.62800002 -2.9111704e+38
-0.11509124 0.060422268 0.62800002 -2.8844809e+38
-0.11391699 0.060422268 0.62800002 -2.9110144e+38
-0.11220416 0.060133629 0.625 -2.8977223e+38
-0.11103553 0.060133629 0.625 -2.9110111e+38
-0.1096911 0.060037412 0.62400001 -2.9508862e+38
-0.10852433 0.060037412 0.62400001 -2.9508888e+38
-0.10718552 0.059941199 0.62300003 -2.9110128e+38
-0.10585044 0.059844986 0.62200004 -2.9508872e+38
-0.10468742 0.059844986 0.62200004 -3.0040553e+38
-0.10352439 0.059844986 0.62200004 -3.1369791e+38
-0.1021968 0.059748773 0.62100005 -3.2300261e+38
-0.10119834 0.059844986 0.62200004 -3.376347e+38
-0.10003531 0.059844986 0.62200004 nan
-0.098872282 0.059844986 0.62200004 nan
-0.097709253 0.059844986 0.62200004 nan
-0.13236846 0.061987076 0.63200003 -3.1280157e+38
-0.13118672 0.061987076 0.63200003 -3.0745346e+38
-0.130005 0.061987076 0.63200003 -3.0210016e+38
-0.12861945 0.061888997 0.63100004 -3.0211041e+38
-0.12723763 0.061790913 0.63000005 -3.0212578e+38
-0.12585954 0.06169283 0.62900001 -3.0611843e+38
-0.12448521 0.061594754 0.62800002 -3.1144547e+38
-0.1231146 0.061496671 0.62700003 -3.1009565e+38
-0.12194223 0.061496671 0.62700003 -3.087458e+38
-0.12076985 0.061496671 0.62700003 -3.1139389e+38
-0.11959747 0.061496671 0.62700003 -3.0470609e+38
-0.11842509 0.061496671 0.62700003 -3.0064028e+38
-0.11725272 0.061496671 0.62700003 -2.9659525e+38
-0.11608034 0.061496671 0.62700003 -2.8986068e+38
-0.11490797 0.061496671 0.62700003 -2.871502e+38
-0.11373559 0.061496671 0.62700003 -2.8979842e+38
-0.11202464 0.061202426 0.62400001 -2.9111736e+38
-0.11068021 0.061104346 0.62300003 -2.9243604e+38
-0.10951532 0.061104346 0.62300003 -2.9375998e+38
-0.10835042 0.061104346 0.62300003 -2.9508918e+38
-0.10701347 0.061006267 0.62200004 -2.8844292e+38
-0.10585044 0.061006267 0.62200004 -2.9375951e+38
-0.10468742 0.061006267 0.62200004 -3.0173476e+38
-0.10335796 0.060908187 0.62100005 -3.0572272e+38
-0.1021968 0.060908187 0.62100005 -3.0439356e+38
-0.10119834 0.061006267 0.62200004 -3.08381e+38
-0.10003531 0.061006267 0.62200004 -3.1370306e+38
-0.098872282 0.061006267 0.62200004 -3.2035958e+38
-0.097552165 0.060908187 0.62100005 -3.2700574e+38
-0.096235782 0.060810108 0.62 -3.3232339e+38
-0.095076494 0.060810108 0.62 nan
-0.093917206 0.060810108 0.62 nan
-0.092608318 0.060712025 0.61900002 nan
-0.12938789 0.06286718 0.62900001 -3.181027e+38
-0.12821178 0.06286718 0.62900001 -3.1144082e+38
-0.12703566 0.06286718 0.62900001 -3.0611334e+38
-0.12585954 0.06286718 0.62900001 -3.0477369e+38
-0.12448521 0.062767237 0.62800002 -3.0610298e+38
-0.1231146 0.062667288 0.62700003 -3.0743742e+38
-0.12194223 0.062667288 0.62700003 -3.0743742e+38
-0.12076985 0.062667288 0.62700003 -3.0609791e+38
-0.11959747 0.062667288 0.62700003 -3.0076544e+38
-0.11842509 0.062667288 0.62700003 -2.9939445e+38
-0.11725272 0.062667288 0.62700003 -2.9136689e+38
-0.11608034 0.062667288 0.62700003 -2.9261814e+38
-0.11454144 0.062467393 0.625 -2.8722316e+38
-0.1133728 0.062467393 0.625 -2.8982961e+38
-0.11202464 0.062367443 0.62400001 -2.9646019e+38
-0.11068021 0.062267497 0.62300003 -2.9646539e+38
-0.10951532 0.062267497 0.62300003 -2.938017e+38
-0.10835042 0.062267497 0.62300003 -2.9643938e+38
-0.10701347 0.062167548 0.62200004 -2.9376529e+38
-0.10585044 0.062167548 0.62200004 -2.9774758e+38
-0.10468742 0.062167548 0.62200004 -3.017352e+38
-0.10335796 0.062067598 0.62100005 -3.0040599e+38
-0.1021968 0.062067598 0.62100005 -2.95089e+38
-0.10103564 0.062067598 0.62100005 -2.9641809e+38
-0.099874482 0.062067598 0.62100005 -2.9641803e+38
-0.098713323 0.062067598 0.62100005 -3.017348e+38
-0.097552165 0.062067598 0.62100005 -3.0306398e+38
-0.096235782 0.061967652 0.62 -3.1901488e+38
-0.095076494 0.061967652 0.62 -3.3630026e+38
-0.093917206 0.061967652 0.62 nan
-0.092608318 0.061867703 0.61900002 nan
-0.0914509 0.061867703 0.61900002 nan
-0.090147607 0.061767761 0.61800003 nan
-0.12703566 0.064041533 0.62900001 -3.2614042e+38
-0.12585954 0.064041533 0.62900001 -3.1812363e+38
-0.12448521 0.06393972 0.62800002 -3.1144654e+38
-0.1231146 0.063837901 0.62700003 -3.0610868e+38
-0.12213672 0.06393972 0.62800002 -3.0210523e+38
-0.12076985 0.063837901 0.62700003 -2.9810193e+38
-0.11978822 0.06393972 0.62800002 -2.9543307e+38
-0.11842509 0.063837901 0.62700003 -2.9942579e+38
-0.11725272 0.063837901 0.62700003 -3.060874e+38
-0.11608034 0.063837901 0.62700003 -3.1006482e+38
-0.11435816 0.063532457 0.62400001 -3.073804e+38
-0.1133728 0.063634276 0.625 -3.0602497e+38
-0.11202464 0.063532457 0.62400001 -2.9799738e+38
-0.11068021 0.063430645 0.62300003 -2.952611e+38
-0.10933953 0.063328825 0.62200004 -2.912163e+38
-0.1081765 0.063328825 0.62200004 -2.8850075e+38
-0.10684143 0.063227013 0.62100005 -2.844767e+38
-0.10585044 0.063328825 0.62200004 -2.9111219e+38
-0.10451911 0.063227013 0.62100005 -2.9643419e+38
-0.10335796 0.063227013 0.62100005 -2.9775291e+38
-0.1021968 0.063227013 0.62100005 -2.9774768e+38
-0.10103564 0.063227013 0.62100005 -2.9641829e+38
-0.099874482 0.063227013 0.62100005 -2.9641825e+38
-0.098554358 0.063125201 0.62 -3.0040571e+38
-0.09739507 0.063125201 0.62 -2.9907634e+38
-0.096235782 0.063125201 0.62 -3.0705169e+38
-0.094923154 0.063023381 0.61900002 -3.0971014e+38
-0.093765736 0.063023381 0.61900002 -3.1635628e+38
-0.092608318 0.063023381 0.61900002 -3.2035439e+38
-0.091303155 0.062921569 0.61800003 -3.2035967e+38
-0.089855865 0.062717937 0.61600006 -3.3365215e+38
-0.11725272 0.065008514 0.62700003 -3.0343432e+38
-0.11454144 0.064801157 0.625 -3.0209988e+38
-0.1133728 0.064801157 0.625 -3.0476347e+38
-0.11202464 0.064697467 0.62400001 -3.0076008e+38
-0.11068021 0.064593792 0.62300003 -2.9671518e+38
-0.10933953 0.06449011 0.62200004 -2.8600846e+38
-0.10800259 0.06438642 0.62100005 -2.9126816e+38
-0.10684143 0.06438642 0.62100005 -2.8322507e+38
-0.10568027 0.06438642 0.62100005 -2.8848992e+38
-0.10451911 0.06438642 0.62100005 -2.9646009e+38
-0.10335796 0.06438642 0.62100005 -2.9777902e+38
-0.1021968 0.06438642 0.62100005 -2.9777906e+38
-0.10103564 0.06438642 0.62100005 -2.9778415e+38
-0.099874482 0.06438642 0.62100005 -2.9644969e+38
-0.098554358 0.064282745 0.62 -2.9908206e+38
-0.09739507 0.064282745 0.62 -2.9375983e+38
-0.096080571 0.064179063 0.61900002 -2.9907638e+38
-0.094923154 0.064179063 0.61900002 -2.990763e+38
-0.093765736 0.064179063 0.61900002 -3.0173476e+38
-0.09245871 0.064075381 0.61800003 -3.0173476e+38
-0.09100768 0.063868016 0.61600006 -3.0572244e+38
-0.089709997 0.063764334 0.61500001 -3.0971014e+38
-0.08856006 0.063764334 0.61500001 -3.2433175e+38
-0.087410122 0.063764334 0.61500001 -3.3629497e+38
-0.08611992 0.063660651 0.61400002 -3.376292e+38
-0.084971845 0.063660651 0.61400002 -3.3231744e+38
-0.11202464 0.065862484 0.62400001 -2.9812765e+38
-0.11068021 0.065756939 0.62300003 -2.9811193e+38
-0.10933953 0.065651387 0.62200004 -2.9810147e+38
-0.10800259 0.065545835 0.62100005 -3.0474245e+38
-0.10666937 0.06544029 0.62 -3.033872e+38
-0.10568027 0.065545835 0.62100005 -3.0469546e+38
-0.1043508 0.06544029 0.62 -2.9400945e+38
-0.10319151 0.06544029 0.62 -2.9526617e+38
-0.10203222 0.06544029 0.62 -2.8722847e+38
-0.10087293 0.06544029 0.62 -2.9117456e+38
-0.099713646 0.06544029 0.62 -2.9382784e+38
-0.098554358 0.06544029 0.62 -2.9777906e+38
-0.09739507 0.06544029 0.62 -2.9776344e+38
-0.096080571 0.065334737 0.61900002 -2.9908208e+38
-0.094923154 0.065334737 0.61900002 -2.9641833e+38
-0.093765736 0.065334737 0.61900002 -2.9907652e+38
-0.09245871 0.065229192 0.61800003 -2.9508872e+38
-0.09100768 0.065018095 0.61600006 -3.0040555e+38
-0.089855865 0.065018095 0.61600006 -3.0173476e+38
-0.08856006 0.06491255 0.61500001 -3.0971055e+38
-0.087410122 0.06491255 0.61500001 -3.0971061e+38
-0.086260185 0.06491255 0.61500001 -3.1768555e+38
-0.084971845 0.064806998 0.61400002 -3.1901472e+38
-0.083823778 0.064806998 0.61400002 -3.2433699e+38
-0.10933953 0.066812672 0.62200004 -2.9813276e+38
-0.10782866 0.066597842 0.62 -2.9946199e+38
-0.10666937 0.066597842 0.62 -2.994672e+38
-0.10551009 0.066597842 0.62 -3.0076006e+38
-0.1043508 0.066597842 0.62 -2.927378e+38
-0.10319151 0.066597842 0.62 -2.9267533e+38
-0.10203222 0.066597842 0.62 -2.8063933e+38
-0.10071024 0.066490419 0.61900002 -2.8989186e+38
-0.099713646 0.066597842 0.62 -2.9652759e+38
-0.098554358 0.066597842 0.62 -2.97831e+38
-0.097237989 0.066490419 0.61900002 -2.96481e+38
-0.096080571 0.066490419 0.61900002 -2.9780498e+38
-0.094923154 0.066490419 0.61900002 -2.9379642e+38
-0.093614258 0.066383012 0.61800003 -3.0042688e+38
-0.092159487 0.066168174 0.61600006 -2.9775277e+38
-0.090859935 0.066060759 0.61500001 -3.0306408e+38
-0.089709997 0.066060759 0.61500001 -3.0306398e+38
-0.08856006 0.066060759 0.61500001 -3.0705205e+38
-0.087410122 0.066060759 0.61500001 -3.0040587e+38
-0.08611992 0.065953337 0.61400002 -3.0040557e+38
-0.084971845 0.065953337 0.61400002 -3.0173476e+38
-0.083823778 0.065953337 0.61400002 -3.1236858e+38
-0.08267571 0.065953337 0.61400002 -3.1503227e+38
-0.081394866 0.065845929 0.61300004 -3.3497083e+38
-0.10666937 0.067755386 0.62 -2.9412455e+38
-0.10551009 0.067755386 0.62 -2.9409849e+38
-0.1043508 0.067755386 0.62 -2.954225e+38
-0.10319151 0.067755386 0.62 -2.9673599e+38
-0.10203222 0.067755386 0.62 -2.9805993e+38
-0.10087293 0.067755386 0.62 -2.9805439e+38
-0.099713646 0.067755386 0.62 -2.9271653e+38
-0.097237989 0.067646101 0.61900002 -2.8329295e+38
-0.096080571 0.067646101 0.61900002 -2.8852671e+38
-0.094769806 0.067536823 0.61800003 -2.8983515e+38
-0.093311295 0.067318246 0.61600006 -2.9514662e+38
-0.09200988 0.067208968 0.61500001 -2.9514135e+38
-0.090712197 0.067099683 0.61400002 -2.9909246e+38
-0.089564122 0.067099683 0.61400002 -3.0041646e+38
-0.088416055 0.067099683 0.61400002 -3.0306457e+38
-0.087267987 0.067099683 0.61400002 -2.9774758e+38
-0.08611992 0.067099683 0.61400002 -3.0040559e+38
-0.084833458 0.066990405 0.61300004 -3.0306398e+38
-0.083687261 0.066990405 0.61300004 -3.0439349e+38
-0.08267571 0.067099683 0.61400002 -3.01735e+38
-0.081394866 0.066990405 0.61300004 -3.1103939e+38
-0.079986848 0.066771835 0.611 -3.1370304e+38
-0.078715339 0.066662557 0.61000001 -3.1902516e+38
-0.077574752 0.066662557 0.61000001 -3.3099359e+38
-0.076434158 0.066662557 0.61000001 nan
-0.075417005 0.066771835 0.611 nan
-0.074152984 0.066662557 0.61000001 nan
-0.073012389 0.066662557 0.61000001 nan
-0.071989626 0.066771835 0.611 nan
-0.070847169 0.066771835 0.611 -3.3768673e+38
-0.069704711 0.066771835 0.611 nan
-0.093311295 0.068468325 0.61600006 -2.9784656e+38
-0.091860265 0.068246029 0.61400002 -2.9782573e+38
-0.090712197 0.068246029 0.61400002 -3.0046863e+38
-0.089564122 0.068246029 0.61400002 -2.9913419e+38
-0.088416055 0.068246029 0.61400002 -3.0308554e+38
-0.087267987 0.068246029 0.61400002 -2.9907705e+38
-0.085979663 0.068134882 0.61300004 -3.0306453e+38
-0.084833458 0.068134882 0.61300004 -2.9774752e+38
-0.083687261 0.068134882 0.61300004 -3.0572289e+38
-0.082541063 0.068134882 0.61300004 -3.0306435e+38
-0.081394866 0.068134882 0.61300004 -3.017348e+38
-0.080117755 0.068023734 0.61200005 -3.0173476e+38
-0.078973427 0.068023734 0.61200005 -3.083809e+38
-0.077701926 0.067912579 0.611 -3.0838092e+38
-0.076434158 0.067801431 0.61000001 -3.1901993e+38
-0.075293571 0.067801431 0.61000001 -3.2832974e+38
-0.074152984 0.067801431 0.61000001 nan
-0.072892703 0.067690283 0.60900003 -3.2833505e+38
-0.071871802 0.067801431 0.61000001 nan
-0.070731208 0.067801431 0.61000001 nan
-0.069590621 0.067801431 0.61000001 nan
-0.068450034 0.067801431 0.61000001 nan
-0.067309439 0.067801431 0.61000001 nan
-0.09200988 0.069505394 0.61500001 -2.9534385e+38
-0.090712197 0.069392376 0.61400002 -2.9396834e+38
-0.089564122 0.069392376 0.61400002 -2.8595662e+38
-0.088416055 0.069392376 0.61400002 -2.8982503e+38
-0.087267987 0.069392376 0.61400002 -2.8980428e+38
-0.085979663 0.069279358 0.61300004 -2.9644997e+38
-0.084833458 0.069279358 0.61300004 -2.9511545e+38
-0.083687261 0.069279358 0.61300004 -3.0440422e+38
-0.082541063 0.069279358 0.61300004 -3.0706785e+38
-0.081394866 0.069279358 0.61300004 -3.0705223e+38
-0.080248661 0.069279358 0.61300004 -3.0439372e+38
-0.078973427 0.06916634 0.61200005 -3.0572291e+38
-0.077701926 0.069053322 0.611 -3.0173514e+38
-0.076434158 0.068940312 0.61000001 -3.0971014e+38
-0.075293571 0.068940312 0.61000001 -3.0971012e+38
-0.074152984 0.068940312 0.61000001 -3.1103937e+38
-0.072892703 0.068827286 0.60900003 -3.0705167e+38
-0.071636163 0.068714269 0.60800004 -3.0705708e+38
-0.070499308 0.068714269 0.60800004 nan
-0.069362462 0.068714269 0.60800004 nan
-0.068225607 0.068714269 0.60800004 nan
-0.085979663 0.070423834 0.61300004 -2.9118478e+38
-0.084833458 0.070423834 0.61300004 -2.9783615e+38
-0.083687261 0.070423834 0.61300004 -3.044616e+38
-0.082541063 0.070423834 0.61300004 -3.0179796e+38
-0.081394866 0.070423834 0.61300004 -3.0444597e+38
-0.080117755 0.070308954 0.61200005 -3.0444597e+38
-0.078973427 0.070308954 0.61200005 -3.0707319e+38
-0.077701926 0.070194066 0.611 -3.0307508e+38
-0.076434158 0.070079185 0.61000001 -3.0705171e+38
-0.075293571 0.070079185 0.61000001 -3.0173476e+38
-0.074152984 0.070079185 0.61000001 -3.0040553e+38
-0.072892703 0.069964297 0.60900003 -2.9508862e+38
-0.071753979 0.069964297 0.60900003 -2.9110095e+38
-0.070615262 0.069964297 0.60900003 nan
-0.069362462 0.069849409 0.60800004 nan
-0.068225607 0.069849409 0.60800004 nan
-0.081129305 0.071334809 0.611 -2.9517287e+38
-0.079986848 0.071334809 0.611 -2.9649692e+38
-0.078844383 0.071334809 0.611 -2.9912913e+38
-0.077574752 0.071218058 0.61000001 -2.9778946e+38
-0.076434158 0.071218058 0.61000001 -3.0310094e+38
-0.075293571 0.071218058 0.61000001 -3.0043727e+38
-0.074152984 0.071218058 0.61000001 -3.0176621e+38
-0.072892703 0.071101308 0.60900003 -2.9643362e+38
-0.071753979 0.071101308 0.60900003 -2.8312605e+38
-0.070615262 0.071101308 0.60900003 -2.9378596e+38
-0.069476537 0.071101308 0.60900003 -2.672061e+38
-0.07403142 0.072238319 0.60900003 -3.0182868e+38
