# .PCD v0.7 - Point Cloud Data file format
VERSION 0.7
FIELDS x y z rgb
SIZE 4 4 4 4
TYPE F F F F
COUNT 1 1 1 1
WIDTH 659
HEIGHT 1
VIEWPOINT 0 0 0 1 0 0 0
POINTS 659
DATA ascii
0.20584093 -0.01679951 0.62200004 -2.5680159e+38
0.20700395 -0.01679951 0.62200004 -2.4617306e+38
0.20235184 -0.015638229 0.62200004 -2.6476649e+38
0.20500696 -0.01566337 0.62300003 -2.4346773e+38
0.20617186 -0.01566337 0.62300003 -2.5013994e+38
0.20733675 -0.01566337 0.62300003 -2.5548812e+38
0.20850165 -0.01566337 0.62300003 -2.5682256e+38
0.20966655 -0.01566337 0.62300003 -2.7142284e+38
0.20235184 -0.014476949 0.62200004 -2.9417092e+38
0.20351487 -0.014476949 0.62200004 -2.6213915e+38
0.20500696 -0.014500224 0.62300003 -2.4747126e+38
0.20617186 -0.014500224 0.62300003 -2.4613682e+38
0.20700395 -0.014476949 0.62200004 -2.5280336e+38
0.20850165 -0.014500224 0.62300003 -2.6081002e+38
0.20731075 -0.014337299 0.61600006 -2.7940877e+38
0.20812415 -0.014314025 0.61500001 -2.5138552e+38
0.20927408 -0.014314025 0.61500001 -2.7255468e+38
0.20002578 -0.013315668 0.62200004 -3.3946367e+38
0.20118882 -0.013315668 0.62200004 nan
0.20235184 -0.013315668 0.62200004 -3.3151442e+38
0.20351487 -0.013315668 0.62200004 -3.2617666e+38
0.20467789 -0.013315668 0.62200004 -3.1684122e+38
0.20584093 -0.013315668 0.62200004 -2.8882318e+38
0.20700395 -0.013315668 0.62200004 -2.7547804e+38
0.20716296 -0.013251444 0.61900002 -2.6213365e+38
0.20731075 -0.013187221 0.61600006 -2.687747e+38
0.20812415 -0.013165814 0.61500001 -2.3407404e+38
0.20927408 -0.013165814 0.61500001 -2.4990616e+38
0.21008186 -0.013144406 0.61400002 -2.4457876e+38
0.21122994 -0.013144406 0.61400002 -2.658456e+38
0.19918247 -0.012173929 0.62300003 -3.3413631e+38
0.20034736 -0.012173929 0.62300003 -3.3946359e+38
0.20151226 -0.012173929 0.62300003 nan
0.20235184 -0.012154388 0.62200004 nan
0.20351487 -0.012154388 0.62200004 nan
0.20517905 -0.012115307 0.62 -3.3682641e+38
0.20600554 -0.012095765 0.61900002 -2.9820553e+38
0.2068283 -0.012076225 0.61800003 -2.8218704e+38
0.20731075 -0.012037143 0.61600006 -2.6484495e+38
0.20812415 -0.012017603 0.61500001 -2.1547062e+38
0.20927408 -0.012017603 0.61500001 -2.3394425e+38
0.21042402 -0.012017603 0.61500001 -2.4191962e+38
0.21122994 -0.011998062 0.61400002 -2.6584572e+38
0.212378 -0.011998062 0.61400002 -2.6451647e+38
0.20151226 -0.011010782 0.62300003 nan
0.20235184 -0.010993108 0.62200004 nan
0.20401977 -0.010957761 0.62 -3.3949482e+38
0.20517905 -0.010957761 0.62 nan
0.20600554 -0.010940086 0.61900002 -3.3416765e+38
0.2068283 -0.010922412 0.61800003 -3.288299e+38
0.20731075 -0.010887065 0.61600006 -2.9950963e+38
0.20812415 -0.010869391 0.61500001 -2.3945981e+38
0.20927408 -0.010869391 0.61500001 -2.0337249e+38
0.21042402 -0.010869391 0.61500001 -2.0204322e+38
0.21122994 -0.010851718 0.61400002 -2.3394415e+38
0.212378 -0.010851718 0.61400002 -2.4191952e+38
0.21352607 -0.010851718 0.61400002 -2.56541e+38
0.21467414 -0.010851718 0.61400002 -2.5919946e+38
0.2158222 -0.010851718 0.61400002 -2.658456e+38
0.20235184 -0.0098318281 0.62200004 -3.355128e+38
0.20351487 -0.0098318281 0.62200004 -3.3284387e+38
0.20401977 -0.0098002143 0.62 -3.3948967e+38
0.20517905 -0.0098002143 0.62 -3.3948969e+38
0.20600554 -0.009784407 0.61900002 nan
0.20615894 -0.0097369868 0.61600006 nan
0.20731075 -0.0097369868 0.61600006 -3.3282329e+38
0.20812415 -0.0097211804 0.61500001 -2.7944566e+38
0.2089338 -0.009705374 0.61400002 -2.673421e+38
0.21008186 -0.009705374 0.61400002 -2.0735979e+38
0.21122994 -0.009705374 0.61400002 -2.3261496e+38
0.21203211 -0.0096895667 0.61300004 -2.3394421e+38
0.21317831 -0.0096895667 0.61300004 -2.4723641e+38
0.21432452 -0.0096895667 0.61300004 -2.5255332e+38
0.21511921 -0.0096737593 0.61200005 -2.658456e+38
0.20369071 -0.0086287279 0.61900002 -3.194527e+38
0.20484813 -0.0086287279 0.61900002 -3.3012822e+38
0.20600554 -0.0086287279 0.61900002 -3.3412591e+38
0.2068283 -0.0086147878 0.61800003 nan
0.20731075 -0.0085869087 0.61600006 nan
0.20778573 -0.0085590295 0.61400002 nan
0.20927408 -0.0085729696 0.61500001 nan
0.21008186 -0.0085590295 0.61400002 -3.3280264e+38
0.21122994 -0.0085590295 0.61400002 -3.2341908e+38
0.21203211 -0.0085450895 0.61300004 -2.4201302e+38
0.21317831 -0.0085450895 0.61300004 -2.3926104e+38
0.21397488 -0.0085311495 0.61200005 -2.326149e+38
0.21511921 -0.0085311495 0.61200005 -2.4324872e+38
0.21449669 -0.0084614512 0.60700005 -2.4723641e+38
0.21598689 -0.0084753903 0.60800004 -2.6451637e+38
0.2045172 -0.007460976 0.61800003 -3.2744881e+38
0.20567274 -0.007460976 0.61800003 -3.3545002e+38
0.20615894 -0.0074368306 0.61600006 -3.3945856e+38
0.20798384 -0.007460976 0.61800003 nan
0.20812415 -0.0074247578 0.61500001 nan
0.20927408 -0.0074247578 0.61500001 nan
0.21042402 -0.0074247578 0.61500001 nan
0.21157396 -0.0074247578 0.61500001 nan
0.212378 -0.0074126855 0.61400002 -2.8607087e+38
0.21317831 -0.0074006123 0.61300004 -2.6332273e+38
0.21432452 -0.0074006123 0.61300004 -2.2597397e+38
0.21476771 -0.0073764669 0.611 -2.3527348e+38
0.21449669 -0.0073281759 0.60700005 -2.392612e+38
0.21598689 -0.0073402482 0.60800004 -2.5255332e+38
0.21676664 -0.0073281759 0.60700005 -2.5521178e+38
0.21790162 -0.0073281759 0.60700005 -2.6451637e+38
0.21867575 -0.0073161032 0.60600001 -2.6451637e+38
0.21980885 -0.0073161032 0.60600001 -2.7116251e+38
0.20567274 -0.0063071637 0.61800003 -3.3413633e+38
0.2068283 -0.0063071637 0.61800003 -3.3813965e+38
0.20798384 -0.0063071637 0.61800003 -3.3411075e+38
0.20846255 -0.0062867524 0.61600006 -3.3011784e+38
0.20961437 -0.0062867524 0.61600006 -3.3810856e+38
0.21076617 -0.0062867524 0.61600006 nan
0.21157396 -0.006276547 0.61500001 -3.3546e+38
0.212378 -0.0062663411 0.61400002 -3.1945191e+38
0.21352607 -0.0062663411 0.61400002 -2.9678291e+38
0.21432452 -0.0062561352 0.61300004 -2.834385e+38
0.21406469 -0.0062153121 0.60900003 -2.780333e+38
0.21449669 -0.0061949007 0.60700005 -2.4600675e+38
0.21598689 -0.0062051062 0.60800004 -2.4059603e+38
0.21676664 -0.0061949007 0.60700005 -2.3261528e+38
0.21754263 -0.0061846948 0.60600001 -2.459072e+38
0.21867575 -0.0061846948 0.60600001 -2.4989486e+38
0.21980885 -0.0061846948 0.60600001 -2.658456e+38
0.22094196 -0.0061846948 0.60600001 -2.6717483e+38
0.22134216 -0.0061642835 0.60400003 -2.6850406e+38
0.22320819 -0.0061846948 0.60600001 -2.6850406e+38
0.22434129 -0.0061846948 0.60600001 -2.6983328e+38
0.2254744 -0.0061846948 0.60600001 -2.6983328e+38
0.22698146 -0.0061949007 0.60700005 -2.6983328e+38
0.20567274 -0.0051533515 0.61800003 -3.1947852e+38
0.2068283 -0.0051533515 0.61800003 -3.1680964e+38
0.20798384 -0.0051533515 0.61800003 -3.04805e+38
0.20846255 -0.0051366743 0.61600006 -3.0214134e+38
0.20961437 -0.0051366743 0.61600006 -3.0612894e+38
0.21076617 -0.0051366743 0.61600006 -3.114667e+38
0.21157396 -0.0051283357 0.61500001 -3.1149244e+38
0.212378 -0.0051199971 0.61400002 -3.0881837e+38
0.21352607 -0.0051199971 0.61400002 -3.0881873e+38
0.21432452 -0.005111658 0.61300004 -3.0748431e+38
0.21406469 -0.0050783027 0.60900003 -3.02126e+38
0.21449669 -0.0050616255 0.60700005 -2.7810609e+38
0.21598689 -0.0050699641 0.60800004 -2.6465725e+38
0.21676664 -0.0050616255 0.60700005 -2.2597403e+38
0.21754263 -0.0050532869 0.60600001 -2.4059027e+38
0.21867575 -0.0050532869 0.60600001 -2.419195e+38
0.21980885 -0.0050532869 0.60600001 -2.5122409e+38
0.22021279 -0.0050366092 0.60400003 -2.5388255e+38
0.22134216 -0.0050366092 0.60400003 -2.6451637e+38
0.22320819 -0.0050532869 0.60600001 -2.658456e+38
0.22434129 -0.0050532869 0.60600001 -2.658456e+38
0.2254744 -0.0050532869 0.60600001 -2.658456e+38
0.22660752 -0.0050532869 0.60600001 -2.7116251e+38
0.22811644 -0.0050616255 0.60700005 -2.7116251e+38
0.22925143 -0.0050616255 0.60700005 -2.7249174e+38
0.20567274 -0.0039995392 0.61800003 -2.7543129e+38
0.20615894 -0.0039865961 0.61600006 -2.7943463e+38
0.20731075 -0.0039865961 0.61600006 -2.767606e+38
0.20846255 -0.0039865961 0.61600006 -2.7676058e+38
0.20961437 -0.0039865961 0.61600006 -2.7677098e+38
0.21076617 -0.0039865961 0.61600006 -2.8344319e+38
0.21157396 -0.0039801244 0.61500001 -2.8611769e+38
0.212378 -0.0039736526 0.61400002 -2.9679321e+38
0.21317831 -0.0039671808 0.61300004 -2.9946696e+38
0.21432452 -0.0039671808 0.61300004 -3.074736e+38
0.21406469 -0.0039412938 0.60900003 -3.1013244e+38
0.21449669 -0.0039283503 0.60700005 -3.1280652e+38
0.21598689 -0.003934822 0.60800004 -3.1145043e+38
0.21676664 -0.0039283503 0.60700005 -2.9944045e+38
0.21754263 -0.003921879 0.60600001 -2.8873448e+38
0.21867575 -0.003921879 0.60600001 -2.3935501e+38
0.21908341 -0.003908935 0.60400003 -2.3527863e+38
0.22021279 -0.003908935 0.60400003 -2.3128567e+38
0.22134216 -0.003908935 0.60400003 -2.3926104e+38
0.22247154 -0.003908935 0.60400003 -2.4723641e+38
0.22434129 -0.003921879 0.60600001 -2.6451637e+38
0.2254744 -0.003921879 0.60600001 -2.6850406e+38
0.22660752 -0.003921879 0.60600001 -2.658456e+38
0.22774063 -0.003921879 0.60600001 -2.6850406e+38
0.22925143 -0.0039283503 0.60700005 -2.6850406e+38
0.23038641 -0.0039283503 0.60700005 -2.6850406e+38
0.2068283 -0.0028457274 0.61800003 -2.6475593e+38
0.20731075 -0.002836518 0.61600006 -2.700989e+38
0.20846255 -0.002836518 0.61600006 -2.700989e+38
0.20961437 -0.002836518 0.61600006 -2.6613221e+38
0.21076617 -0.002836518 0.61600006 -2.6880111e+38
0.21157396 -0.0028319133 0.61500001 -2.8343832e+38
0.212378 -0.0028273084 0.61400002 -3.0078605e+38
0.21352607 -0.0028273084 0.61400002 -2.981327e+38
0.21432452 -0.0028227037 0.61300004 -3.0346525e+38
0.2137132 -0.00279968 0.60800004 -3.1145117e+38
0.21449669 -0.0027950753 0.60700005 -3.1812337e+38
0.21563166 -0.0027950753 0.60700005 -3.1946787e+38
0.21676664 -0.0027950753 0.60700005 -3.1012678e+38
0.21754263 -0.0027904706 0.60600001 -3.0215186e+38
0.21867575 -0.0027904706 0.60600001 -2.7279419e+38
0.21908341 -0.002781261 0.60400003 -2.6334865e+38
0.22021279 -0.002781261 0.60400003 -2.2464996e+38
0.22134216 -0.002781261 0.60400003 -2.4723641e+38
0.22247154 -0.002781261 0.60400003 -2.4856564e+38
0.22360091 -0.002781261 0.60400003 -2.5388255e+38
0.22473027 -0.002781261 0.60400003 -2.5919946e+38
0.22660752 -0.0027904706 0.60600001 -2.6717483e+38
0.22774063 -0.0027904706 0.60600001 -2.658456e+38
0.22887373 -0.0027904706 0.60600001 -2.6983328e+38
0.23000684 -0.0027904706 0.60600001 -2.7116251e+38
0.20697421 -0.001683702 0.61500001 -2.5807827e+38
0.20812415 -0.001683702 0.61500001 -2.5540941e+38
0.20927408 -0.001683702 0.61500001 -2.5941322e+38
0.21076617 -0.0016864397 0.61600006 -2.5940802e+38
0.21157396 -0.001683702 0.61500001 -2.6341141e+38
0.212378 -0.0016809643 0.61400002 -2.6607507e+38
0.21317831 -0.0016782265 0.61300004 -2.7140754e+38
0.21397488 -0.0016754888 0.61200005 -2.7407644e+38
0.2137132 -0.0016645379 0.60800004 -2.7942453e+38
0.21449669 -0.0016618002 0.60700005 -2.8476229e+38
0.21563166 -0.0016618002 0.60700005 -2.8876531e+38
0.21640952 -0.0016590625 0.60600001 -2.887705e+38
0.21754263 -0.0016590625 0.60600001 -2.8880723e+38
0.21867575 -0.0016590625 0.60600001 -2.968139e+38
0.21908341 -0.001653587 0.60400003 -2.9411897e+38
0.22021279 -0.001653587 0.60400003 -2.8744679e+38
0.22134216 -0.001653587 0.60400003 -2.8471564e+38
0.22247154 -0.001653587 0.60400003 -2.566872e+38
0.22360091 -0.001653587 0.60400003 -2.432597e+38
0.22473027 -0.001653587 0.60400003 -2.3394455e+38
0.22660752 -0.0016590625 0.60600001 -2.4059029e+38
0.22774063 -0.0016590625 0.60600001 -2.4723641e+38
0.22887373 -0.0016590625 0.60600001 -2.6185792e+38
0.23000684 -0.0016590625 0.60600001 -2.658456e+38
0.23037712 -0.001653587 0.60400003 -2.658456e+38
0.2315065 -0.001653587 0.60400003 -2.658456e+38
0.23263587 -0.001653587 0.60400003 -2.6850406e+38
0.212378 -0.00053462008 0.61400002 -2.5269428e+38
0.21352607 -0.00053462008 0.61400002 -2.4605812e+38
0.21467414 -0.00053462008 0.61400002 -2.5006663e+38
0.21406469 -0.00053026649 0.60900003 -2.6738873e+38
0.21449669 -0.0005285251 0.60700005 -2.6605431e+38
0.21563166 -0.0005285251 0.60700005 -2.7007807e+38
0.21676664 -0.0005285251 0.60700005 -2.7007807e+38
0.21754263 -0.00052765437 0.60600001 -2.8477233e+38
0.21867575 -0.00052765437 0.60600001 -2.9277898e+38
0.21908341 -0.00052591291 0.60400003 -2.9681372e+38
0.22021279 -0.00052591291 0.60400003 -3.0748926e+38
0.22134216 -0.00052591291 0.60400003 -3.0747395e+38
0.22247154 -0.00052591291 0.60400003 -2.9145547e+38
0.22360091 -0.00052591291 0.60400003 -2.7536955e+38
0.22473027 -0.00052591291 0.60400003 -2.2599525e+38
0.22585964 -0.00052591291 0.60400003 -2.4856616e+38
0.22698902 -0.00052591291 0.60400003 -2.4723687e+38
0.22811839 -0.00052591291 0.60400003 -2.4856568e+38
0.22924776 -0.00052591291 0.60400003 -2.5521178e+38
0.23037712 -0.00052591291 0.60400003 -2.6451637e+38
0.2315065 -0.00052591291 0.60400003 -2.658456e+38
0.23148039 -0.00052330078 0.60100001 -2.6850406e+38
0.23260416 -0.00052330078 0.60100001 -2.658456e+38
0.23333901 -0.00052243005 0.60000002 -2.658456e+38
0.2137132 0.00060574629 0.60800004 -2.5137554e+38
0.21485005 0.00060574629 0.60800004 -2.4737222e+38
0.21598689 0.00060574629 0.60800004 -2.5936133e+38
0.21676664 0.00060475001 0.60700005 -2.6870242e+38
0.21754263 0.00060375372 0.60600001 -2.7540555e+38
0.21867575 0.00060375372 0.60600001 -2.9276366e+38
0.21908341 0.0006017611 0.60400003 -2.9281037e+38
0.22021279 0.0006017611 0.60400003 -3.0882883e+38
0.22134216 0.0006017611 0.60400003 -3.1281656e+38
0.22210319 0.00060076482 0.60300004 -3.3282795e+38
0.22360091 0.0006017611 0.60400003 -3.2746478e+38
0.2243582 0.00060076482 0.60300004 -3.1545485e+38
0.22585964 0.0006017611 0.60400003 -3.1140975e+38
0.22698902 0.0006017611 0.60400003 -2.5669766e+38
0.22811839 0.0006017611 0.60400003 -2.3794755e+38
0.22924776 0.0006017611 0.60400003 -2.2995644e+38
0.23037712 0.0006017611 0.60400003 -2.419195e+38
0.2315065 0.0006017611 0.60400003 -2.4856564e+38
0.23148039 0.00059877225 0.60100001 -2.631872e+38
0.23260416 0.00059877225 0.60100001 -2.6451645e+38
0.23333901 0.00059777597 0.60000002 -2.658456e+38
0.23446091 0.00059777597 0.60000002 -2.658456e+38
0.21485005 0.0017408885 0.60800004 -2.5269406e+38
0.21598689 0.0017408885 0.60800004 -2.6068001e+38
0.21712375 0.0017408885 0.60800004 -2.7135033e+38
0.21790162 0.0017380251 0.60700005 -2.753847e+38
0.21867575 0.0017351618 0.60600001 -2.9674613e+38
0.21980885 0.0017351618 0.60600001 -2.8615908e+38
0.22094196 0.0017351618 0.60600001 -3.0084314e+38
0.22134216 0.0017294352 0.60400003 -3.0617565e+38
0.22210319 0.0017265719 0.60300004 -3.2352336e+38
0.22360091 0.0017294352 0.60400003 -3.3415755e+38
0.2243582 0.0017265719 0.60300004 -3.381557e+38
0.22585964 0.0017294352 0.60400003 -3.3681105e+38
0.22661319 0.0017265719 0.60300004 -2.9944154e+38
0.22774071 0.0017265719 0.60300004 -2.6869735e+38
0.2288682 0.0017265719 0.60300004 -2.2199712e+38
0.2299957 0.0017265719 0.60300004 -2.3926142e+38
0.23073992 0.0017237086 0.60200006 -2.4457838e+38
0.23186556 0.0017237086 0.60200006 -2.6185796e+38
0.23221712 0.001717982 0.60000002 -2.6451637e+38
0.23295012 0.0017151186 0.59900004 -2.658456e+38
0.23407014 0.0017151186 0.59900004 -2.658456e+38
0.23401225 0.0017065288 0.59600002 -2.658456e+38
0.23512666 0.0017065288 0.59600002 -2.658456e+38
0.21485005 0.0028760305 0.60800004 -2.6873846e+38
0.21598689 0.0028760305 0.60800004 -2.7140239e+38
0.21712375 0.0028760305 0.60800004 -2.7541093e+38
0.2182606 0.0028760305 0.60800004 -2.7407115e+38
0.21903661 0.0028713001 0.60700005 -2.7674001e+38
0.21980885 0.0028665699 0.60600001 -2.7812104e+38
0.22094196 0.0028665699 0.60600001 -2.7946067e+38
0.22134216 0.0028571093 0.60400003 -2.8477791e+38
0.22210319 0.0028523789 0.60300004 -2.9411899e+38
0.22323069 0.0028523789 0.60300004 -2.9813753e+38
0.2243582 0.0028523789 0.60300004 -3.0614934e+38
0.2254857 0.0028523789 0.60300004 -3.208076e+38
0.22661319 0.0028523789 0.60300004 -3.2481094e+38
0.22736302 0.0028476487 0.60200006 -3.167738e+38
0.2288682 0.0028523789 0.60300004 -3.0609833e+38
0.2299957 0.0028523789 0.60300004 -2.9941009e+38
0.23112319 0.0028523789 0.60300004 -2.4869611e+38
0.23109522 0.0028381881 0.60000002 -2.4193008e+38
0.23221712 0.0028381881 0.60000002 -2.3527342e+38
0.23295012 0.0028334577 0.59900004 -2.4324872e+38
0.2332886 0.0028239973 0.597 -2.4989486e+38
0.23440488 0.0028239973 0.597 -2.6451637e+38
0.23552117 0.0028239973 0.597 -2.6451637e+38
0.2358447 0.0028145362 0.59500003 -2.6451637e+38
0.23695724 0.0028145362 0.59500003 -2.6451637e+38
0.21790162 0.0040045753 0.60700005 -2.7806417e+38
0.21903661 0.0040045753 0.60700005 -2.793934e+38
0.22017159 0.0040045753 0.60700005 -2.7807435e+38
0.22094196 0.0039979778 0.60600001 -2.7540549e+38
0.22134216 0.0039847833 0.60400003 -2.7672955e+38
0.22173487 0.0039715888 0.60200006 -2.8740505e+38
0.22323069 0.0039781858 0.60300004 -2.8477777e+38
0.2243582 0.0039781858 0.60300004 -2.9412406e+38
0.2254857 0.0039781858 0.60300004 -2.9415542e+38
0.22661319 0.0039781858 0.60300004 -3.0350172e+38
0.22736302 0.0039715888 0.60200006 -3.1944763e+38
0.22848865 0.0039715888 0.60200006 -3.2344578e+38
0.22770719 0.0039386023 0.597 -3.2078732e+38
0.22882347 0.0039386023 0.597 -2.8742631e+38
0.23032492 0.0039451993 0.59800005 -2.6471477e+38
0.23144308 0.0039451993 0.59800005 -2.3268818e+38
0.23217231 0.0039386023 0.597 -2.4591764e+38
0.2332886 0.0039386023 0.597 -2.5122413e+38
0.23440488 0.0039386023 0.597 -2.56541e+38
0.23552117 0.0039386023 0.597 -2.5787023e+38
0.23624107 0.0039320048 0.59600002 -2.6451645e+38
0.23695724 0.0039254073 0.59500003 -2.6451645e+38
0.23806979 0.0039254073 0.59500003 -2.6451639e+38
0.21984819 0.0051039928 0.60300004 -2.754003e+38
0.2209757 0.0051039928 0.60300004 -2.7405022e+38
0.22210319 0.0051039928 0.60300004 -2.7538466e+38
0.2228605 0.0050955289 0.60200006 -2.7140233e+38
0.2243582 0.0051039928 0.60300004 -2.6473536e+38
0.22511177 0.0050955289 0.60200006 -2.6606972e+38
0.22623739 0.0050955289 0.60200006 -2.7007304e+38
0.22585231 0.0050616711 0.59800005 -2.807277e+38
0.2265909 0.0050532073 0.597 -2.8873434e+38
0.22770719 0.0050532073 0.597 -2.887762e+38
0.22882347 0.0050532073 0.597 -2.9679327e+38
0.23032492 0.0050616711 0.59800005 -2.9411417e+38
0.23105603 0.0050532073 0.597 -2.8877642e+38
0.23217231 0.0050532073 0.597 -2.8604449e+38
0.2332886 0.0050532073 0.597 -2.5267818e+38
0.23440488 0.0050532073 0.597 -2.4725241e+38
0.23552117 0.0050532073 0.597 -2.3793214e+38
0.23663744 0.0050532073 0.597 -2.4856592e+38
0.23775372 0.0050532073 0.597 -2.5255366e+38
0.23806979 0.0050362782 0.59500003 -2.5919952e+38
0.23918232 0.0050362782 0.59500003 -2.6052869e+38
0.2228605 0.006219469 0.60200006 -2.7137101e+38
0.22398613 0.006219469 0.60200006 -2.6736773e+38
0.22511177 0.006219469 0.60200006 -2.6338528e+38
0.22623739 0.006219469 0.60200006 -2.6204563e+38
0.22585231 0.006178143 0.59800005 -2.6606935e+38
0.22697046 0.006178143 0.59800005 -2.6873822e+38
0.22770719 0.0061678123 0.597 -2.7542119e+38
0.22844018 0.0061574806 0.59600002 -2.9010008e+38
0.22993974 0.0061678123 0.597 -2.9545376e+38
0.23105603 0.0061678123 0.597 -2.9545899e+38
0.23217231 0.0061678123 0.597 -2.9544843e+38
0.2332886 0.0061678123 0.597 -2.7009401e+38
0.23440488 0.0061678123 0.597 -2.6068042e+38
0.23552117 0.0061678123 0.597 -2.3532086e+38
0.23663744 0.0061678123 0.597 -2.36608e+38
0.23735549 0.0061574806 0.59600002 -2.4457821e+38
0.23806979 0.006147149 0.59500003 -2.5654123e+38
0.23918232 0.006147149 0.59500003 -2.5388267e+38
0.23867944 0.0061058239 0.59100002 -2.5654115e+38
0.23978449 0.0061058239 0.59100002 -2.5654115e+38
0.23966677 0.00607483 0.588 -2.5654102e+38
0.24186568 0.00607483 0.588 -2.6318714e+38
0.22660767 0.0073190122 0.60000002 -2.6871722e+38
0.22772956 0.0073190122 0.60000002 -2.7272052e+38
0.22770719 0.0072824173 0.597 -2.7139178e+38
0.22844018 0.0072702188 0.59600002 -2.7272628e+38
0.22993974 0.0072824173 0.597 -2.7273174e+38
0.23105603 0.0072824173 0.597 -2.7273697e+38
0.23217231 0.0072824173 0.597 -2.7939859e+38
0.2332886 0.0072824173 0.597 -2.8207266e+38
0.23440488 0.0072824173 0.597 -2.8072303e+38
0.23552117 0.0072824173 0.597 -2.7004755e+38
0.23663744 0.0072824173 0.597 -2.6332283e+38
0.23735549 0.0072702188 0.59600002 -2.4196649e+38
0.23726955 0.0072336239 0.59300005 -2.4724215e+38
0.23837835 0.0072336239 0.59300005 -2.4059073e+38
0.23908329 0.0072214254 0.59200001 -2.4590742e+38
0.23897304 0.0071848305 0.58900005 -2.4723663e+38
0.24007437 0.0071848305 0.58900005 -2.5521182e+38
0.24035676 0.0071604336 0.58700001 -2.56541e+38
0.24186568 0.007172632 0.588 -2.56541e+38
0.24255192 0.0071604336 0.58700001 -2.5787023e+38
0.22808862 0.0084110871 0.59800005 -2.7269521e+38
0.22920677 0.0084110871 0.59800005 -2.7136081e+38
0.23032492 0.0084110871 0.59800005 -2.7136083e+38
0.23105603 0.0083970213 0.597 -2.6869718e+38
0.23217231 0.0083970213 0.597 -2.727055e+38
0.2332886 0.0083970213 0.597 -2.7670878e+38
0.23440488 0.0083970213 0.597 -2.7804368e+38
0.23552117 0.0083970213 0.597 -2.7937821e+38
0.23624107 0.0083829574 0.59600002 -2.7804861e+38
0.23695724 0.0083688917 0.59500003 -2.6203528e+38
0.23726955 0.0083407611 0.59300005 -2.5397159e+38
0.23797636 0.0083266953 0.59200001 -2.3661347e+38
0.23908329 0.0083266953 0.59200001 -2.3926126e+38
0.24019022 0.0083266953 0.59200001 -2.4324895e+38
0.24048197 0.0082985647 0.59000003 -2.5255346e+38
0.24117568 0.0082844989 0.58900005 -2.5122415e+38
0.24268836 0.0082985647 0.59000003 -2.5787025e+38
0.24379155 0.0082985647 0.59000003 -2.5787023e+38
0.24447966 0.0082844989 0.58900005 -2.5787023e+38
0.24599794 0.0082985647 0.59000003 -2.5787023e+38
0.22770719 0.0095116263 0.597 -2.6604402e+38
0.22882347 0.0095116263 0.597 -2.6603362e+38
0.22993974 0.0095116263 0.597 -2.6604911e+38
0.23105603 0.0095116263 0.597 -2.6471467e+38
0.23217231 0.0095116263 0.597 -2.6737284e+38
0.2332886 0.0095116263 0.597 -2.6870724e+38
0.23440488 0.0095116263 0.597 -2.6872828e+38
0.23552117 0.0095116263 0.597 -2.6872832e+38
0.23624107 0.0094956951 0.59600002 -2.7139178e+38
0.23655899 0.0094638299 0.59400004 -2.7005211e+38
0.23726955 0.0094478978 0.59300005 -2.6337484e+38
0.23797636 0.0094319647 0.59200001 -2.5537341e+38
0.23908329 0.0094319647 0.59200001 -2.5398187e+38
0.23978449 0.0094160326 0.59100002 -2.3528934e+38
0.24048197 0.0094001004 0.59000003 -2.4059077e+38
0.24158517 0.0094001004 0.59000003 -2.4059077e+38
0.24268836 0.0094001004 0.59000003 -2.5122421e+38
0.24379155 0.0094001004 0.59000003 -2.5255336e+38
0.24489474 0.0094001004 0.59000003 -2.5255332e+38
0.24599794 0.0094001004 0.59000003 -2.5255332e+38
0.2358447 0.010590633 0.59500003 -2.6471974e+38
0.23576249 0.010537235 0.59200001 -2.6871783e+38
0.23686942 0.010537235 0.59200001 -2.6206137e+38
0.23677039 0.010483837 0.58900005 -2.620666e+38
0.23867944 0.010519436 0.59100002 -2.620406e+38
0.23937878 0.010501636 0.59000003 -2.4735654e+38
0.24007437 0.010483837 0.58900005 -2.4592848e+38
0.24117568 0.010483837 0.58900005 -2.3793218e+38
0.24227701 0.010483837 0.58900005 -2.4191956e+38
0.24337833 0.010483837 0.58900005 -2.4457797e+38
0.24447966 0.010483837 0.58900005 -2.5255332e+38
0.24599794 0.010501636 0.59000003 -2.5122409e+38
0.24668232 0.010483837 0.58900005 -2.56541e+38
0.24820432 0.010501636 0.59000003 -2.5787023e+38
0.24930751 0.010501636 0.59000003 -2.5787023e+38
0.23346642 0.011583505 0.58900005 -2.6338553e+38
0.23456775 0.011583505 0.58900005 -2.6471995e+38
0.23566906 0.011583505 0.58900005 -2.6206662e+38
0.23677039 0.011583505 0.58900005 -2.6206662e+38
0.23827559 0.011603172 0.59000003 -2.6472498e+38
0.23937878 0.011603172 0.59000003 -2.6338532e+38
0.24007437 0.011583505 0.58900005 -2.6200918e+38
0.24117568 0.011583505 0.58900005 -2.5133362e+38
0.24227701 0.011583505 0.58900005 -2.4860247e+38
0.24337833 0.011583505 0.58900005 -2.3793735e+38
0.24447966 0.011583505 0.58900005 -2.4191976e+38
0.24599794 0.011603172 0.59000003 -2.4059047e+38
0.24668232 0.011583505 0.58900005 -2.4590722e+38
0.24778365 0.011583505 0.58900005 -2.4856564e+38
0.24888496 0.011583505 0.58900005 -2.4989486e+38
0.24956186 0.011563839 0.588 -2.5255332e+38
0.25066131 0.011563839 0.588 -2.56541e+38
0.25176078 0.011563839 0.588 -2.56541e+38
0.25286022 0.011563839 0.588 -2.56541e+38
0.26734012 0.011524507 0.58600003 -2.4991573e+38
0.23456775 0.012683175 0.58900005 -2.6737824e+38
0.23566906 0.012683175 0.58900005 -2.6738864e+38
0.23677039 0.012683175 0.58900005 -2.7005233e+38
0.23827559 0.012704708 0.59000003 -2.660699e+38
0.23937878 0.012704708 0.59000003 -2.6473027e+38
0.24007437 0.012683175 0.58900005 -2.6339583e+38
0.24117568 0.012683175 0.58900005 -2.5805807e+38
0.24227701 0.012683175 0.58900005 -2.566872e+38
0.24337833 0.012683175 0.58900005 -2.4200316e+38
0.24447966 0.012683175 0.58900005 -2.3927686e+38
0.24558099 0.012683175 0.58900005 -2.3527346e+38
0.2462635 0.012661641 0.588 -2.4191952e+38
0.24736296 0.012661641 0.588 -2.4457795e+38
0.24846241 0.012661641 0.588 -2.4590718e+38
0.24956186 0.012661641 0.588 -2.4590718e+38
0.24980871 0.012618575 0.58600003 -2.4989486e+38
0.25047627 0.012597041 0.58500004 -2.4989486e+38
0.25157011 0.012597041 0.58500004 -2.5255332e+38
0.25266397 0.012597041 0.58500004 -2.5255332e+38
0.2537578 0.012597041 0.58500004 -2.5388255e+38
0.25485164 0.012597041 0.58500004 -2.5521178e+38
0.26688394 0.012597041 0.58500004 -2.6717483e+38
0.24048197 0.013806243 0.59000003 -2.6207173e+38
0.24268836 0.013806243 0.59000003 -2.6338516e+38
0.24337833 0.013782843 0.58900005 -2.5937659e+38
0.24447966 0.013782843 0.58900005 -2.5400755e+38
0.24558099 0.013782843 0.58900005 -2.4198714e+38
0.2462635 0.013759443 0.588 -2.3661335e+38
0.24652158 0.013712643 0.58600003 -2.3128606e+38
0.24761729 0.013712643 0.58600003 -2.3660279e+38
0.24828857 0.013689242 0.58500004 -2.392612e+38
0.24938242 0.013689242 0.58500004 -2.4324876e+38
0.25047627 0.013689242 0.58500004 -2.4590718e+38
0.25157011 0.013689242 0.58500004 -2.4856564e+38
0.25223204 0.013665842 0.58400005 -2.4989486e+38
0.25332403 0.013665842 0.58400005 -2.4989486e+38
0.25441602 0.013665842 0.58400005 -2.4856564e+38
0.25594547 0.013689242 0.58500004 -2.5388255e+38
0.25659996 0.013665842 0.58400005 -2.5521178e+38
0.25813317 0.013689242 0.58500004 -2.56541e+38
0.25922701 0.013689242 0.58500004 -2.56541e+38
0.26032087 0.013689242 0.58500004 -2.5787023e+38
0.26141471 0.013689242 0.58500004 -2.5787023e+38
0.26250854 0.013689242 0.58500004 -2.6185792e+38
0.26360241 0.013689242 0.58500004 -2.658456e+38
0.26579008 0.013689242 0.58500004 -2.7116251e+38
0.26688394 0.013689242 0.58500004 -2.7116251e+38
0.24447966 0.014882512 0.58900005 -2.5672872e+38
0.24516405 0.014857245 0.588 -2.5005128e+38
0.24584466 0.014831978 0.58700001 -2.4203437e+38
0.24652158 0.01480671 0.58600003 -2.3002443e+38
0.24761729 0.01480671 0.58600003 -2.3130153e+38
0.24828857 0.014781443 0.58500004 -2.2995665e+38
0.24938242 0.014781443 0.58500004 -2.3660266e+38
0.2500481 0.014756176 0.58400005 -2.392611e+38
0.25114009 0.014756176 0.58400005 -2.4457797e+38
0.25223204 0.014756176 0.58400005 -2.4590718e+38
0.25332403 0.014756176 0.58400005 -2.4856564e+38
0.25441602 0.014756176 0.58400005 -2.4989486e+38
0.25550798 0.014756176 0.58400005 -2.4989486e+38
0.25616059 0.014730908 0.583 -2.4989486e+38
0.25769192 0.014756176 0.58400005 -2.4989486e+38
0.25878391 0.014756176 0.58400005 -2.4989486e+38
0.26032087 0.014781443 0.58500004 -2.5388255e+38
0.26096785 0.014756176 0.58400005 -2.56541e+38
0.26250854 0.014781443 0.58500004 -2.5388255e+38
0.26315179 0.014756176 0.58400005 -2.5521178e+38
0.26424378 0.014756176 0.58400005 -2.6185792e+38
0.26533574 0.014756176 0.58400005 -2.6451637e+38
0.26688394 0.014781443 0.58500004 -2.6451637e+38
0.24584466 0.015927913 0.58700001 -2.5005639e+38
0.24652158 0.015900778 0.58600003 -2.4471865e+38
0.24719474 0.015873645 0.58500004 -2.4199793e+38
0.24828857 0.015873645 0.58500004 -2.299776e+38
0.24895613 0.015846509 0.58400005 -2.2995691e+38
0.2500481 0.015846509 0.58400005 -2.2862768e+38
0.25114009 0.015846509 0.58400005 -2.3128589e+38
0.25180015 0.015819374 0.583 -2.3394429e+38
0.25289026 0.015819374 0.583 -2.4191956e+38
0.25398037 0.015819374 0.583 -2.4457795e+38
0.25507048 0.015819374 0.583 -2.4457795e+38
0.25572118 0.015792241 0.58200002 -2.4457795e+38
0.25725067 0.015819374 0.583 -2.4723641e+38
0.25878391 0.015846509 0.58400005 -2.4856564e+38
0.25987586 0.015846509 0.58400005 -2.4856564e+38
0.26096785 0.015846509 0.58400005 -2.4856564e+38
0.26205984 0.015846509 0.58400005 -2.5122409e+38
0.26315179 0.015846509 0.58400005 -2.5388255e+38
0.26424378 0.015846509 0.58400005 -2.56541e+38
0.26533574 0.015846509 0.58400005 -2.5787023e+38
0.26688394 0.015873645 0.58500004 -2.6052869e+38
0.26751968 0.015846509 0.58400005 -2.6451637e+38
0.24719474 0.016965846 0.58500004 -2.4603257e+38
0.24786416 0.016936844 0.58400005 -2.3936042e+38
0.24895613 0.016936844 0.58400005 -2.3400189e+38
0.2500481 0.016936844 0.58400005 -2.2865894e+38
0.25114009 0.016936844 0.58400005 -2.273035e+38
0.25180015 0.016907841 0.583 -2.2729823e+38
0.25289026 0.016907841 0.583 -2.3261498e+38
0.25354469 0.016878841 0.58200002 -2.3394413e+38
0.25419542 0.016849838 0.58100003 -2.4059029e+38
0.25528178 0.016849838 0.58100003 -2.4457795e+38
0.25592691 0.016820839 0.58000004 -2.4723641e+38
0.25789765 0.016878841 0.58200002 -2.4856564e+38
0.25898588 0.016878841 0.58200002 -2.4856564e+38
0.26007411 0.016878841 0.58200002 -2.4856564e+38
0.26116234 0.016878841 0.58200002 -2.4856564e+38
0.26225057 0.016878841 0.58200002 -2.4723641e+38
0.2633388 0.016878841 0.58200002 -2.5122409e+38
0.26442704 0.016878841 0.58200002 -2.5255332e+38
0.26642773 0.016936844 0.58400005 -2.5521178e+38
0.26614544 0.016849838 0.58100003 -2.5521178e+38
0.26723179 0.016849838 0.58100003 -2.5521178e+38
0.26785636 0.016820839 0.58000004 -2.56541e+38
0.2695598 0.016791835 0.57900006 -2.658456e+38
0.25180015 0.017996309 0.583 -2.2198682e+38
0.25289026 0.017996309 0.583 -2.2331075e+38
0.25310907 0.017934572 0.58100003 -2.2198148e+38
0.25419542 0.017934572 0.58100003 -2.2729819e+38
0.25528178 0.017934572 0.58100003 -2.2995654e+38
0.25592691 0.017903704 0.58000004 -2.3926108e+38
0.25745451 0.017934572 0.58100003 -2.4457795e+38
0.25898588 0.017965442 0.58200002 -2.4590718e+38
0.26007411 0.017965442 0.58200002 -2.4590718e+38
0.26116234 0.017965442 0.58200002 -2.4723641e+38
0.26225057 0.017965442 0.58200002 -2.4856564e+38
0.2633388 0.017965442 0.58200002 -2.4856564e+38
0.2639727 0.017934572 0.58100003 -2.4856564e+38
0.26551527 0.017965442 0.58200002 -2.4856564e+38
0.26614544 0.017934572 0.58100003 -2.4856564e+38
0.26723179 0.017934572 0.58100003 -2.5122409e+38
0.26785636 0.017903704 0.58000004 -2.5521178e+38
0.26894084 0.017903704 0.58000004 -2.6052869e+38
0.2695598 0.017872835 0.57900006 -2.658456e+38
0.25419542 0.019019304 0.58100003 -2.2065195e+38
0.25528178 0.019019304 0.58100003 -2.2331036e+38
0.25592691 0.01898657 0.58000004 -2.3128569e+38
0.25745451 0.019019304 0.58100003 -2.3660258e+38
0.2585409 0.019019304 0.58100003 -2.4059027e+38
0.25962725 0.019019304 0.58100003 -2.4324872e+38
0.26071361 0.019019304 0.58100003 -2.4457795e+38
0.26179999 0.019019304 0.58100003 -2.4457795e+38
0.26288635 0.019019304 0.58100003 -2.4723641e+38
0.26351836 0.01898657 0.58000004 -2.4723641e+38
0.26414666 0.018953834 0.57900006 -2.4723641e+38
0.26568738 0.01898657 0.58000004 -2.4856564e+38
0.26677185 0.01898657 0.58000004 -2.4856564e+38
0.26739454 0.018953834 0.57900006 -2.5122409e+38
0.26801348 0.018921098 0.57800001 -2.5919946e+38
0.26862869 0.018888362 0.57700002 -2.6717483e+38
0.26970756 0.018888362 0.57700002 -2.7647961e+38
0.2591804 0.020069435 0.58000004 -2.2995644e+38
0.26026487 0.020069435 0.58000004 -2.3527336e+38
0.26134938 0.020069435 0.58000004 -2.3793181e+38
0.26243389 0.020069435 0.58000004 -2.419195e+38
0.26306403 0.020034831 0.57900006 -2.4457795e+38
0.26414666 0.020034831 0.57900006 -2.4457795e+38
0.26522928 0.020034831 0.57900006 -2.4457795e+38
0.26631191 0.020034831 0.57900006 -2.4856564e+38
0.26693273 0.020000231 0.57800001 -2.5255332e+38
0.26754978 0.019965626 0.57700002 -2.56541e+38
0.26862869 0.019965626 0.57700002 -2.6185792e+38
0.26924011 0.019931026 0.57600003 -2.6717489e+38
0.26369044 0.021079361 0.57800001 -2.4059027e+38
0.26477122 0.021079361 0.57800001 -2.4457795e+38
0.26585197 0.021079361 0.57800001 -2.4457795e+38
0.26647091 0.021042891 0.57700002 -2.4590718e+38
0.26801348 0.021079361 0.57800001 -2.4989486e+38
0.26862869 0.021042891 0.57700002 -2.5255332e+38
0.26970756 0.021042891 0.57700002 -2.5521182e+38
0.26862869 0.022120155 0.57700002 -2.4723641e+38
